10.772943	-0.045940	23.838245	15	14	28
9.805995	0.023627	20.486420	15	14	29
12.094965	0.292271	20.895924	10	10	22
10.218515	0.107820	20.062832	6	5	19
13.299013	-0.143562	22.895561	12	12	22
1.934073	-3.718403	28.840111	193	192	209
2.068783	-3.645517	28.283838	199	198	213
3.312996	0.449207	14.980305	39	35	44
7.434276	-0.225889	18.067604	23	21	39
10.392412	-0.150696	24.551149	39	37	59
7.506983	-0.113586	17.732927	19	18	39
11.386291	-0.062209	23.003164	24	23	38
11.635302	0.124948	22.573536	8	7	22
2.233247	-0.024970	4.788204	10	10	21
10.261912	-0.131765	19.598125	14	13	28
4.447521	1.254280	23.755186	42	42	52
1.766476	3.292496	14.940796	32	23	33
6.307719	1.444504	20.183687	168	168	176
-4.224593	-5.299367	34.948895	211	201	193
8.089003	1.324363	28.275320	152	152	163
11.285248	-0.247147	22.799433	11	10	24
1.978592	-4.374838	31.440731	164	159	177
-5.549996	7.176033	29.225182	188	175	183
11.134050	-0.299836	23.163864	149	152	163
7.659222	1.607295	30.461395	30	22	24
10.999787	-0.306980	23.586857	8	7	22
-0.601585	-8.011716	42.815525	153	151	161
5.966989	1.345063	23.865067	39	31	31
5.478249	1.086277	19.017881	22	20	30
11.837648	0.213219	21.922606	19	18	33
6.234380	1.545919	24.731548	221	210	209
11.814937	2.858063	43.557007	92	90	100
-3.701855	4.533710	20.995020	180	173	188
11.427366	2.073335	19.887600	12	12	22
-3.980226	-5.402443	35.854404	200	187	184
12.051762	0.294555	21.119663	30	30	42
1.917827	0.071211	9.113525	194	194	206
10.420407	0.067909	19.669928	16	15	30
4.758026	1.718277	22.306559	48	48	58
6.912155	1.457764	32.796158	33	31	39
2.167657	0.364781	10.539287	152	150	158
-9.658364	6.196290	26.544235	49	35	31
13.035346	-0.826769	22.440641	11	15	23
11.921532	-0.048339	20.816986	168	168	178
3.539161	0.067404	7.488880	170	169	184
5.025055	1.378091	22.579615	233	230	238
2.286047	5.032208	22.124737	52	40	54
10.056693	-0.635031	23.651123	13	16	23
3.395548	-0.160691	7.452712	10	13	22
1.764650	0.005602	3.674055	7	7	19
2.716208	0.175982	12.219765	54	54	64
12.216791	0.234813	22.665483	68	67	82
6.079686	1.461326	24.101084	206	198	198
1.954879	-0.004091	3.916590	22	22	34
3.588175	0.013855	7.471409	6	5	19
3.837919	0.511051	17.317572	15	11	20
12.337806	0.041652	23.307148	13	12	26
10.132296	0.029460	21.094971	15	14	29
10.299187	-0.019666	20.702709	13	12	27
9.760795	-0.025433	21.531097	28	27	42
-5.295170	6.398483	29.377317	165	157	171
9.304275	-0.082812	21.949156	20	18	40
10.537858	-0.114174	20.092976	14	13	28
1.890637	3.560472	16.149195	64	56	69
14.250854	2.588419	24.803139	9	9	17
6.185507	1.005659	21.791492	170	170	183
9.457703	1.871898	32.823578	136	136	146
5.865403	1.308193	23.479706	75	57	55
1.145278	-0.053124	2.510943	21	21	33
3.383602	-0.097010	7.267721	11	10	24
4.525090	1.134170	16.072939	51	49	59
9.293214	-0.338287	21.309072	17	16	31
-5.069793	-6.387385	41.830849	139	131	128
2.090361	-0.098354	4.588135	8	11	19
-3.951076	-4.534606	33.164524	181	170	164
8.727962	-0.262765	21.212425	28	26	46
-0.423458	-6.048205	32.314495	116	114	124
-16.488348	7.594044	48.237305	32	21	25
1.528738	-2.661319	28.882318	102	100	120
2.049336	-4.771074	34.060532	139	138	153
12.140799	-0.982621	20.900206	9	14	22
10.033083	0.186642	21.661411	171	170	185
-9.008828	6.082156	25.788830	113	103	53
6.726134	1.403243	32.038086	111	109	117
-2.655945	-3.492700	23.254261	222	213	202
4.910025	1.124095	15.996668	199	199	207
7.150104	1.782231	25.476992	41	39	49
1.547336	-2.827025	21.807087	170	171	190
6.634366	1.088581	23.398157	170	170	183
8.007494	-0.312643	19.595171	20	19	35
9.963794	-0.275930	22.649490	14	13	28
11.234478	0.159044	21.995228	6	5	19
10.229099	-0.009711	22.646872	15	14	28
7.764464	-0.068318	18.387388	19	17	39
24.659983	-0.988484	48.576927	139	139	149
10.433595	-0.449716	21.684301	14	17	24
5.903724	-0.187942	13.414358	107	110	121
-11.431609	7.470560	32.992989	244	240	225
1.320070	-0.006072	2.920891	7	7	19
2.631094	0.170099	11.889918	29	29	39
4.503596	0.981981	18.065172	35	28	28
3.486405	0.056589	7.472913	177	176	191
2.112049	0.053582	10.075185	171	169	179
4.991642	1.190369	18.410706	53	51	62
1.786608	-0.051693	3.960194	14	13	28
3.433527	0.014389	7.407047	169	168	182
3.271528	-0.007142	7.241693	11	10	25
4.537236	0.580649	20.431732	25	21	30
4.729634	1.129834	18.749878	206	198	198
9.427711	-0.003758	17.946804	14	14	27
1.625593	-0.015346	3.277172	104	104	116
5.700706	1.680935	34.202930	76	72	71
10.720731	-0.233498	22.275110	159	161	174
1.552874	-2.652040	28.675682	102	100	120
9.828325	0.184795	18.292400	19	18	33
4.981253	1.034055	23.999664	92	90	98
5.847758	2.080192	34.194370	180	179	182
10.171435	0.021571	24.765224	190	189	204
9.620537	-0.607781	22.625330	13	16	23
1.029337	-0.037199	2.437717	138	139	149
1.903883	3.579414	16.231575	52	43	54
1.878779	-0.055593	8.969175	166	166	178
-4.237263	2.891455	26.804325	56	55	72
-5.060642	-5.824740	42.133556	199	186	175
10.611691	-0.718685	21.269939	7	7	17
8.113530	0.094703	18.566492	176	175	190
-5.529728	6.679774	30.674030	109	99	110
8.536036	1.805987	34.057644	90	71	71
5.862227	1.170401	20.329426	22	20	30
1.799950	3.436316	15.625794	63	56	69
5.029100	1.769495	29.064283	211	211	219
12.827213	0.221361	25.096294	15	14	31
5.876268	1.438496	21.147018	39	37	47
8.968608	2.068590	29.229059	173	173	183
9.800444	0.100113	20.444706	9	9	22
10.011301	0.142662	21.505970	180	179	194
1.596260	-0.016690	7.596029	177	175	185
9.371567	0.025720	20.774843	13	13	25
9.594376	0.065287	21.942183	176	175	190
5.464969	0.912728	19.428200	180	179	194
4.392439	1.221585	26.160048	78	73	72
8.884080	-0.050875	21.010468	41	39	61
10.735200	0.285292	20.426279	174	173	187
3.884356	-0.053632	7.812618	10	9	23
6.645782	-0.088516	13.314685	166	168	182
10.167829	-0.147921	20.449034	6	5	20
-4.333927	2.993211	27.724009	136	135	152
5.416911	0.640554	24.560715	40	36	44
9.471926	-0.258368	20.359007	8	7	22
3.285983	-0.176788	7.273949	10	13	20
10.051729	-0.382540	19.662970	8	11	18
8.494207	-0.342776	20.782972	35	34	49
8.755383	-0.339916	20.705936	160	161	179
10.160657	-0.645780	19.339766	16	16	26
5.346724	1.126281	25.897644	57	55	63
-8.437175	5.893736	28.214642	102	98	113
-14.566333	6.724088	42.797722	32	21	25
9.162604	-0.543522	20.310274	11	14	21
2.085998	0.112790	9.450145	54	54	64
1.633422	3.545130	16.114841	89	77	91
-8.015432	5.830459	28.113506	65	67	65
9.831692	-0.697343	19.776445	10	10	20
8.463247	1.389401	40.306702	126	124	132
1.592588	-2.729304	28.789499	104	102	122
4.634896	0.625905	18.598442	77	61	64
8.527342	-0.328227	20.792156	20	19	35
14.204815	-0.443640	33.244141	170	171	190
9.053337	-0.321653	20.584881	14	13	28
10.139962	-0.491862	20.995646	9	12	19
9.029965	2.110007	29.227676	122	122	132
3.099200	0.729779	11.300813	41	39	49
4.241324	1.450999	24.115503	218	218	226
5.576768	1.080732	19.164450	10	10	19
9.289407	-0.233163	20.528072	168	167	182
9.543577	-0.229049	20.327803	8	7	21
13.850625	-0.243634	27.736917	11	10	24
8.490608	1.812217	32.864491	20	22	26
9.750615	-0.141511	20.221098	172	172	186
7.774635	-0.056000	19.018848	190	189	206
3.857780	1.080208	22.743002	25	19	24
10.155232	-0.052316	19.839182	174	174	185
8.991341	0.023228	21.053026	9	7	29
9.197399	0.024573	20.912811	179	178	193
3.513041	0.743772	17.307568	61	59	67
9.430768	0.113564	20.840809	6	6	18
9.672457	0.114206	20.602879	186	185	200
-5.094822	3.608210	32.265316	174	173	189
3.300460	0.539004	15.623798	162	158	167
9.876845	0.201112	20.483410	9	9	21
10.088589	0.200320	20.211733	180	179	194
10.653168	0.252777	20.799332	9	9	21
3.159115	0.375641	14.393401	25	21	30
-5.650140	4.219202	33.937992	26	25	40
6.587967	-0.402545	14.601725	15	18	25
5.114759	1.472419	20.199253	60	50	47
2.388561	1.013876	13.915687	77	71	78
3.801875	1.051922	20.404718	12	10	18
9.876824	-0.676504	19.782467	7	7	17
1.281717	-2.041348	22.083399	147	145	167
5.469460	0.622797	21.786119	85	79	88
-1.624032	2.414766	20.926079	144	143	158
3.305653	0.331627	15.310484	47	45	55
1.761253	0.442739	9.488601	12	12	20
15.244238	0.263713	30.528393	177	176	191
8.298850	-0.153987	17.424295	165	167	181
11.534333	0.165941	25.587370	67	67	77
2.641696	0.018386	12.533104	177	175	183
3.952717	1.785783	23.153046	77	71	78
13.447202	3.189650	44.328716	220	220	230
7.461797	1.842974	28.536163	200	199	208
3.612343	1.270963	20.543455	227	225	231
7.658128	0.016896	17.581032	179	178	193
3.953185	-0.018766	9.674669	31	29	49
4.372783	0.849154	14.924738	8	8	18
2.061161	-0.043249	4.571232	177	176	193
7.017867	-0.073649	17.325142	183	182	199
3.187067	0.844112	18.115719	17	10	20
3.294048	-1.293176	11.640495	180	178	186
3.875369	0.650588	13.950968	184	183	198
7.248509	-0.244567	17.245472	181	182	201
1.470955	-2.267973	24.949369	154	152	172
10.860163	-0.503945	26.480871	29	29	43
-3.013443	-3.684854	25.220005	181	172	162
-9.669496	1.408102	24.541626	162	151	143
3.652415	1.490638	19.296864	63	59	70
-8.444177	6.382463	48.021252	35	37	53
3.327094	1.498172	19.428627	77	71	78
-0.636783	1.869944	19.279253	25	25	35
8.401198	-2.284425	36.053288	150	148	138
-3.490859	3.135206	24.966949	27	26	39
12.357389	-0.405450	29.261297	121	121	138
6.503747	-2.386224	15.397519	175	171	180
-4.857849	-6.044724	40.874413	238	225	209
5.994941	0.126964	12.448968	167	166	181
5.479371	0.054885	12.146352	139	138	153
-4.520233	3.133933	27.554319	185	184	201
-5.797633	3.136030	30.783176	28	28	40
7.015334	-0.039101	17.362274	172	171	186
-1.225842	-0.573755	29.368082	8	8	16
2.199783	0.535760	15.521791	23	23	33
4.999367	0.020503	11.709098	174	173	188
2.521428	0.939785	17.822969	164	164	176
2.058104	0.428535	11.638405	12	9	15
6.109239	-0.050741	28.523800	172	172	184
7.966724	-3.224725	27.728765	166	164	172
13.932379	3.653062	49.826351	43	41	51
2.931455	0.843092	14.277197	197	196	206
-6.422689	0.250147	32.604584	9	9	18
-0.996820	2.608553	27.531458	20	20	30
-9.441096	-0.273135	40.411148	82	82	95
-5.086997	2.600383	26.887096	50	50	62
1.765641	0.005381	7.283092	125	123	124
11.553438	1.684333	38.311649	16	18	27
1.915521	0.406534	13.557556	14	14	22
3.370611	1.963354	19.099648	28	26	34
3.574851	1.926235	18.727505	38	40	54
