-7.318756	-5.639872	37.641407	44	37	51
13.523213	-8.809122	34.984856	220	234	246
-6.697904	5.820388	47.820705	215	193	208
15.883134	-7.170798	28.444780	161	183	175
-7.815868	2.332508	48.698341	166	159	162
-16.826519	-6.010530	38.420410	190	172	169
-23.426077	-6.568580	44.373962	168	164	173
17.076950	-6.233799	32.881802	187	212	207
-9.530647	-0.935564	44.327175	218	216	236
-8.309229	4.294569	46.031868	170	160	150
-2.699071	5.212308	31.981337	188	192	196
-16.955824	-6.422727	38.709553	162	158	157
11.301865	-4.523824	26.210007	188	214	201
11.995634	-5.193448	27.656845	205	225	212
13.149200	-5.803652	27.014780	185	214	203
12.163465	-6.665025	27.790258	207	224	218
11.880378	-4.645465	32.261631	214	208	201
13.393312	-5.203814	27.284672	198	216	210
-3.730522	-8.176161	34.377300	15	23	30
12.211145	-5.936368	27.644577	202	222	214
11.460739	-5.730954	26.687422	196	224	213
13.396045	-5.386940	25.786892	195	218	199
15.066830	-5.742073	27.487623	181	213	183
11.066443	-8.216118	28.629787	190	193	196
13.778784	-7.449833	29.808996	187	219	201
12.485413	-7.779381	28.390734	199	222	203
14.037951	-7.374178	26.704287	160	184	168
13.274028	-6.038868	26.950909	184	211	196
14.252090	-7.885028	28.556137	209	222	210
-11.783616	0.293764	31.450136	164	164	172
13.539758	-5.840316	25.961828	189	205	202
14.135822	-7.854361	26.788446	179	197	184
10.892155	-4.602167	25.614891	191	220	203
14.561290	-8.219868	28.824472	186	201	195
13.948258	-6.901056	26.534882	148	174	164
15.011312	-5.652354	30.968267	175	198	178
-6.872156	0.490178	43.984558	174	173	178
14.928155	-6.280902	28.965166	181	209	189
-4.876986	4.129019	48.444752	180	174	181
14.006511	-7.271380	28.181160	191	215	218
14.074410	-6.085699	28.199278	196	222	216
-3.499894	-8.174730	33.517117	181	187	195
11.807218	-6.781572	27.360083	210	224	209
-3.805066	7.513361	39.236671	168	167	170
-0.796385	-9.403489	29.807442	40	40	50
-5.744200	2.057389	47.105808	166	164	165
15.434642	-5.639939	31.065964	160	187	169
-2.683937	8.004995	36.023163	166	159	157
-5.098521	2.086609	39.960701	188	176	181
-4.014264	2.907262	41.251514	124	119	121
-2.157222	7.407538	36.298843	175	147	153
12.595514	-8.356688	28.511362	168	179	155
15.853809	-8.358179	28.497839	169	189	166
13.963050	-7.132792	32.029331	174	201	193
14.698368	-6.310223	28.158598	181	196	193
16.908833	-6.561002	45.981373	210	203	203
14.679816	-7.341824	34.183010	69	105	78
14.695673	-5.890309	34.040283	120	145	134
13.474753	-7.394786	30.785297	201	214	209
16.590633	-7.685265	31.684338	150	161	162
-2.863959	5.336627	33.028778	196	200	204
11.416704	-6.569036	26.480440	210	224	209
14.983959	-6.339174	30.429186	194	220	213
13.418694	-6.727015	26.844028	207	215	211
-5.740705	4.922104	40.471935	150	119	137
10.825315	-7.083117	28.154196	172	186	198
15.767577	-8.172839	31.698202	157	186	183
15.201488	-5.897724	31.013395	75	101	85
13.315684	-8.303594	30.279577	164	178	166
13.440614	-7.486887	27.017979	193	206	195
13.786925	-5.992594	31.800127	181	204	188
-9.540040	-7.261310	48.898067	44	37	51
11.098928	-8.254620	28.683374	176	180	183
13.079021	-5.500633	30.692822	116	149	124
-4.985183	-11.399671	46.824532	188	196	202
12.156817	-8.068785	27.569252	144	157	134
15.176640	-8.435716	28.805824	161	179	166
14.441779	-6.754604	26.189528	165	182	175
15.219981	-7.206709	28.753035	186	203	206
-5.065843	2.159253	47.269394	116	110	115
-17.235863	-4.585919	33.051701	182	178	187
-5.187004	-11.361983	47.621513	21	28	35
12.332632	-5.483699	25.424471	146	178	162
15.239827	-8.016853	28.922451	169	188	176
-8.150910	-0.772004	37.976707	173	172	186
-17.897724	-4.306701	32.404217	17	15	20
-7.479586	3.851082	41.373547	179	167	150
-3.609039	3.793619	45.623379	185	179	186
15.096902	-5.544508	30.505053	178	197	192
14.442136	-5.411767	29.772718	175	198	178
13.785954	-7.798581	27.311640	126	141	135
15.006144	-6.176087	28.479597	167	183	172
15.799177	-6.850348	31.604822	173	197	198
-5.155263	2.099491	40.334133	153	129	135
-16.725147	-6.314421	38.191143	162	158	157
-4.509684	3.217622	36.890945	88	84	93
-5.939076	1.731624	35.772705	57	50	50
-2.140308	7.223368	35.559235	179	155	160
-2.657075	7.792799	35.033138	166	156	155
-16.656521	-5.936053	38.038322	190	172	169
-4.749938	-4.339723	31.759871	31	23	40
-14.523568	-9.315168	44.082874	35	12	0
14.715352	-8.506656	34.130596	35	68	36
-23.415796	-6.535232	44.509846	181	177	186
12.155799	-6.840992	27.443974	209	211	230
11.281742	-7.363634	29.379320	190	200	216
14.374584	-7.061606	27.512877	123	142	140
12.958164	-6.515337	25.973825	207	215	211
15.985333	-6.224905	43.510338	210	203	203
12.077663	-7.954667	27.451172	164	170	151
14.615226	-8.065202	27.818050	98	116	101
6.028374	-3.035586	12.126376	150	169	160
-8.209860	-6.321986	42.388168	61	54	68
11.618288	-8.612787	30.025942	141	140	143
14.699577	-6.980089	27.821575	191	203	214
-13.926398	-5.067881	31.814587	187	169	168
-5.931446	-0.656337	27.832449	173	172	186
11.818326	-6.936746	27.041677	143	168	161
14.315104	-6.715442	27.399677	204	207	219
-2.906098	5.332018	33.143421	196	200	204
15.277149	-6.874064	30.988316	145	170	158
14.600507	-5.932613	33.856972	174	198	189
16.468390	-9.294918	32.622715	199	211	209
12.060706	-5.384521	24.909603	146	178	162
15.677793	-6.788754	31.424978	194	218	221
-11.715507	0.318472	31.131058	159	159	167
14.213148	-5.888895	27.057281	205	217	215
14.594274	-5.616827	29.790258	128	147	141
13.945908	-6.018833	32.162212	181	204	188
12.837117	-7.203000	25.885145	208	220	212
-3.893668	3.353606	39.546261	180	174	181
10.870461	-5.450932	25.396191	178	210	190
-4.240542	1.827345	40.073006	116	110	115
12.392217	-5.319730	25.285896	194	218	221
14.084990	-5.703397	27.110518	199	220	210
-4.956168	2.121282	41.153431	172	167	169
-4.204597	1.608372	32.724556	153	129	135
-21.877893	-13.061557	48.977360	26	24	32
-2.212219	7.247144	35.878918	173	155	158
-5.143836	-4.701512	34.382359	57	50	66
-11.516102	0.624718	47.518978	177	176	181
-2.540684	5.567320	33.395393	15	13	18
-17.506977	-6.602237	39.710243	151	149	150
12.534661	-8.004220	28.109861	192	192	171
-5.429101	4.624785	38.639267	202	174	191
11.808785	-4.842765	27.458944	214	236	231
12.668484	-6.141480	29.181526	192	215	213
-9.037552	-0.887022	42.266235	215	214	233
11.933005	-6.097998	27.529600	80	111	97
12.770270	-8.363343	33.255089	75	85	101
15.959338	-7.162891	32.334995	145	170	158
12.343807	-5.321345	25.188747	194	218	221
12.366307	-7.250363	28.295431	145	160	160
-23.571255	-6.532587	45.048218	184	180	189
-7.930587	2.532542	46.568508	29	27	25
-2.689053	5.829592	35.027439	17	16	21
-3.135456	5.510930	34.571812	200	201	206
-12.710820	0.327230	33.749207	129	129	137
-5.867608	5.039174	41.867310	156	131	145
11.492090	-4.596004	31.624878	216	209	210
14.962906	-7.785577	30.170897	51	88	68
-2.943857	4.177992	45.137783	42	36	41
-21.815498	-8.660613	45.590595	188	190	192
-3.705777	3.834208	44.807438	183	177	184
-4.382713	3.880699	45.315235	179	173	180
-14.414414	-5.271333	32.801537	187	169	171
-24.674938	-7.198781	48.684315	186	178	189
-2.556001	8.422835	41.639626	177	158	162
-6.136029	-4.816598	31.956789	44	37	51
-5.196903	2.167524	42.902840	172	167	169
-4.305468	1.948635	41.563122	162	156	161
12.868800	-6.500048	25.886187	195	207	209
-5.953010	2.183366	48.113159	147	147	147
-5.094775	5.763083	49.074501	213	190	203
-19.022165	-3.965983	38.590008	144	134	135
-11.761574	-2.091346	31.263054	49	27	17
-3.229609	-5.460757	32.685184	113	109	120
12.881841	-4.879693	26.248096	208	219	224
10.911304	-5.390026	31.948624	203	203	216
-13.684555	0.004399	36.088734	8	8	16
9.736543	-6.398139	25.355408	220	234	246
-16.563950	-6.020589	37.429016	186	172	174
-2.921529	5.136234	32.514641	201	202	207
-13.907380	0.467045	36.668629	153	153	161
-2.159783	9.496689	48.532711	38	39	36
-19.045971	-6.700482	39.623341	28	26	36
-7.731100	-0.762513	36.142200	173	172	186
1.983338	-3.909137	29.894464	203	199	208
9.882424	-4.973915	22.688829	197	219	217
-6.074057	5.232482	43.417267	156	131	145
10.167953	-6.463576	26.722340	24	34	41
-3.590594	7.834432	46.002914	15	13	18
-10.697843	-6.443344	38.015911	231	217	200
-13.035383	3.754096	35.186726	185	176	171
-3.028753	10.086454	49.397892	177	158	162
5.269881	3.065165	18.742716	11	9	13
-1.798818	6.738174	34.398754	23	21	19
13.109374	-5.387729	30.391113	214	236	231
-2.492194	3.588886	38.195107	42	36	41
-2.514955	2.639609	36.257545	34	28	33
-3.101058	3.236297	37.819656	183	177	182
-3.616318	3.274363	38.232952	181	175	182
-7.293954	-6.788845	49.969177	64	56	73
-9.213152	-6.599247	35.414413	93	43	35
-3.546102	-1.099524	27.348658	183	184	207
-19.450315	-3.943129	39.445583	164	154	152
-13.311848	-0.295134	35.506290	26	25	40
-9.782132	-1.099553	45.367016	140	139	154
-20.171495	-7.357130	45.324272	178	169	170
-4.799291	-1.483237	37.064930	179	174	190
-17.209972	-0.365609	45.926121	19	19	29
-3.372455	5.018714	45.358490	181	174	174
-11.052454	0.392760	29.172693	160	158	168
-3.530916	5.761985	37.563786	207	204	210
-13.920367	3.867669	37.324894	186	177	171
-7.882650	1.970018	47.695019	134	127	127
17.031424	-8.479180	39.109379	146	176	162
-4.616437	2.369795	46.310921	185	179	184
-3.044538	6.500769	38.561218	17	16	21
16.220924	-6.846573	37.691895	87	117	95
5.853152	-3.674583	29.053188	196	196	206
-2.335209	2.459508	33.746185	34	28	33
-6.663682	-0.603751	41.659729	81	118	183
11.200617	-4.509861	30.746126	184	177	173
-3.638618	4.127197	35.012455	170	145	159
-8.756871	-1.512671	26.638006	58	50	58
11.481976	-7.633398	49.291500	107	101	106
-8.461630	2.808627	49.659992	29	27	25
-10.027380	-1.732955	30.501566	38	29	38
-8.182420	-1.008722	38.503483	213	213	225
-11.297348	-6.246492	47.540848	127	125	137
8.933251	-3.675332	24.732401	210	203	201
-6.946779	1.643059	40.779144	141	129	131
-6.806671	6.080221	48.459469	208	177	195
-3.845961	2.048661	39.323162	175	169	174
-4.928388	5.644465	47.326733	203	180	193
-11.799014	-8.014538	46.136185	231	206	188
-4.003144	3.862674	43.545769	177	171	178
-3.055237	4.733987	31.487392	172	173	182
-12.467900	-8.927369	46.539352	107	34	28
-12.395414	-2.448700	32.841370	60	27	18
12.993350	-5.411889	30.339697	191	220	203
-17.100801	-6.225468	38.429302	183	168	170
-4.643296	-1.051293	28.989107	187	185	207
1.218516	-2.288382	16.448957	187	183	192
