19.261230	5.301785	37.422127	74	81	67
13.972837	-2.618605	32.526482	122	126	120
13.675735	-2.746634	32.452114	45	50	45
4.120980	10.159476	39.139816	129	169	67
5.811671	0.203372	25.410742	182	179	189
19.878580	6.352727	37.730011	205	205	187
5.325047	0.366776	23.436636	113	110	116
15.652566	-3.013457	31.610985	32	37	33
16.019890	4.162101	27.579159	37	39	39
15.435802	-3.087734	31.696318	173	178	174
3.120047	0.545462	22.245378	139	177	181
5.642585	5.380078	25.335823	150	154	158
4.859729	0.808812	26.968073	157	192	201
11.777490	-2.524712	28.353653	186	191	186
4.990564	0.896653	26.518322	25	43	46
3.371861	-0.307344	33.305420	156	154	162
2.952428	1.289792	27.740383	109	116	128
3.837173	-1.011040	28.318378	119	120	123
5.949623	-1.893455	44.041798	43	45	48
7.541707	-4.111467	30.819502	50	49	52
5.008978	4.860159	25.856766	147	150	158
5.120693	-0.740144	37.650463	47	49	49
2.396168	-5.067234	17.715513	32	34	33
3.867419	3.042881	26.664942	194	193	198
4.179303	3.389395	28.581890	221	220	225
3.296757	2.904500	24.133450	214	214	223
17.061035	4.632111	33.073627	40	50	36
16.910688	5.694679	32.054234	164	161	152
19.217587	6.413496	35.943737	37	35	33
1.324855	-4.441279	24.080397	156	154	167
2.373153	-4.882285	17.559599	30	32	33
3.409934	-4.335412	22.233513	131	137	141
16.418823	5.419338	31.434940	72	73	55
16.734798	5.310599	31.720224	178	178	162
2.896142	-7.287971	26.735931	105	108	110
1.345756	-5.287956	26.250608	127	135	135
4.462791	-6.095499	28.353258	50	56	61
2.872614	-6.825065	30.559036	41	42	44
1.605233	-3.470688	15.400440	46	48	48
2.697898	-0.894587	26.962572	75	78	87
0.110423	-1.783104	7.762146	153	154	157
20.379948	-13.115376	46.348251	140	139	139
3.431426	2.378525	25.418467	114	158	162
3.403919	2.793445	26.398682	39	37	38
5.076286	0.402964	28.593735	114	166	169
2.175095	-4.853589	16.351662	113	118	117
-0.013524	-0.408423	1.801831	127	129	129
5.532081	-0.005328	24.851004	143	141	138
3.598270	0.788197	25.946159	72	113	112
2.462892	3.550687	29.099453	143	148	156
-0.025110	-3.692356	33.911598	108	111	120
3.926682	3.789094	23.410307	170	173	184
3.984233	-5.358387	31.393682	95	98	105
16.654959	4.113068	28.549847	117	119	121
20.300224	-13.129415	45.741096	92	93	98
10.983002	-2.104930	29.636898	141	154	149
3.948416	-2.130380	42.516052	81	86	92
1.785658	-2.510791	19.382854	166	172	175
2.651476	-3.434102	20.920321	144	147	154
2.962896	1.165825	23.863276	50	53	62
2.356592	-0.573898	23.183176	147	150	159
2.898443	-2.908465	32.635735	62	65	72
1.587879	-3.597015	19.928406	90	94	97
1.494118	-2.320838	36.244492	126	129	140
1.813088	0.496562	27.726206	112	133	140
2.749236	3.411251	28.426495	163	166	173
2.690297	-6.710813	29.253721	128	130	130
11.423533	7.564141	47.647484	129	129	132
4.543246	11.169515	42.226734	41	61	31
15.367682	-2.768758	31.656689	70	74	70
13.555002	-2.585747	31.612577	141	146	140
2.431481	0.825773	22.715090	168	171	180
18.023754	4.824804	34.679169	36	47	34
4.480827	-0.691370	33.157158	84	85	88
3.264022	3.875323	29.876482	82	86	90
17.994696	4.971066	35.119026	83	94	79
4.978334	0.913911	26.566013	36	63	67
4.916812	0.826940	27.338449	131	184	189
15.995696	-3.242284	33.038704	195	201	197
15.950080	5.435294	30.414345	181	181	165
8.208163	-4.757983	36.816887	41	46	52
3.320711	2.947621	24.514408	193	193	201
5.286422	0.513258	23.295950	202	201	204
21.156042	7.228763	40.363876	208	208	193
3.239013	-6.692080	23.694824	14	15	17
2.855628	-0.306794	28.344093	105	103	113
5.531425	0.386087	24.366697	134	131	137
2.361277	2.997847	25.001942	191	196	204
5.071152	4.836600	22.903414	162	166	170
2.445535	-8.489532	45.939156	119	116	129
11.190060	-2.420010	27.016687	162	169	162
2.165803	-5.510004	20.203527	73	74	79
13.253799	-2.666781	31.633152	42	47	41
2.562676	3.680182	30.110949	110	115	123
4.273616	-1.127096	31.523481	109	111	111
4.209824	4.059978	25.088467	160	163	173
5.379773	-6.826311	34.950336	146	150	154
1.688430	-6.723649	33.294601	98	108	109
4.712284	4.664587	24.737469	144	148	155
5.806410	0.213549	25.432230	206	204	214
5.988300	-2.041865	44.527534	98	99	104
2.122851	-4.722068	21.826128	166	167	170
3.377001	-4.642881	21.610809	60	66	69
15.195653	-2.921376	30.690538	32	37	33
0.057978	-0.940143	4.085017	156	157	159
3.263913	0.048138	23.915699	146	169	171
1.611437	-3.479947	15.400521	55	57	57
2.872614	-6.825065	30.559036	41	42	44
3.270345	2.458328	25.216433	140	165	168
3.390396	-1.870011	37.391323	67	72	78
1.750084	-3.938108	13.263571	167	172	171
3.088934	-0.113975	22.082930	34	44	45
10.374303	-2.039814	28.021471	172	179	174
3.952653	0.204846	22.156862	128	161	166
3.549143	2.903795	27.582685	60	60	63
0.789862	-2.836060	10.553118	95	96	98
1.082172	-2.538425	13.929163	105	106	109
4.184546	-5.610948	32.998337	120	123	130
1.768529	0.502916	27.551144	146	154	161
-0.045199	-5.388411	49.658936	91	94	103
11.346649	-2.515152	28.864433	185	185	180
2.441283	-0.595097	23.996380	151	154	163
2.456986	1.083865	23.483137	85	96	107
2.561142	-2.595299	29.031734	63	67	67
4.945653	12.210333	47.034866	146	191	77
3.030665	0.534626	21.899555	165	189	196
2.758287	-0.913713	27.607687	61	66	74
1.301697	-3.972783	16.777651	154	156	153
3.753588	-4.856631	29.668499	169	172	179
1.376617	-3.919677	18.306314	60	60	67
2.187600	-3.080729	23.871454	151	158	160
3.344338	0.733050	24.119539	72	113	112
16.925926	5.792895	32.304256	198	198	182
2.857641	-5.918153	20.894857	26	28	27
1.805277	-3.964299	18.379951	192	195	196
12.035707	-2.278619	28.095007	158	163	157
16.145838	4.404996	31.576513	76	87	72
3.679124	0.056316	26.981731	140	148	153
5.464986	0.127370	24.023518	174	171	177
3.427736	2.976885	23.648785	106	106	113
13.551147	-2.717892	32.350403	41	46	40
1.897915	-4.806688	17.697054	105	108	110
19.220165	6.283124	36.373451	158	159	140
4.682031	4.633809	24.703903	144	148	155
4.261503	4.092653	25.352959	160	163	173
16.441374	-2.971655	33.934925	72	75	72
13.985093	-3.007407	33.579330	162	169	162
4.613235	-0.820219	33.635773	53	55	55
3.175232	3.783548	29.463867	97	101	105
2.337987	3.063250	25.524595	184	189	197
3.075515	1.326424	29.058300	80	84	97
2.540542	3.677108	30.028669	143	148	156
3.807965	3.332152	27.838194	194	194	202
19.331316	6.357930	36.182178	58	56	53
4.351502	0.256639	24.053429	158	179	188
5.581673	0.346002	24.533981	157	153	163
15.399467	-3.116349	31.810175	195	201	197
-0.166987	-3.893394	36.372211	120	123	132
5.611152	5.356985	25.340300	111	115	119
10.863214	-5.932319	44.193192	72	74	77
0.143793	-2.097927	9.105574	133	134	136
0.932833	-3.100758	13.557913	118	119	125
2.781516	-6.564395	29.333761	41	43	43
2.107636	-4.534617	20.153517	36	38	38
2.596717	0.911508	24.328482	168	171	180
5.937288	0.937896	33.133968	140	188	190
4.197814	-5.707906	26.695663	50	56	61
4.813642	0.882880	25.771410	36	63	67
0.816271	-2.959445	15.793569	138	137	152
3.976129	-5.128294	26.296291	168	172	176
3.811617	3.095439	29.364000	60	60	63
7.093713	-4.111136	31.820215	52	58	62
3.044319	-7.084904	39.224480	94	98	100
2.617896	-1.494632	28.921186	67	72	78
2.809249	-7.317985	31.406239	139	140	142
10.372986	-2.109522	28.977268	80	91	89
10.195894	-7.188872	25.572662	118	121	117
10.689816	-2.102536	28.914488	160	170	167
1.888845	0.600459	31.004946	146	154	161
4.505403	-3.343892	49.946049	99	104	103
10.925154	-2.402576	29.510199	174	176	173
13.400932	-2.575258	27.019896	26	31	27
2.582999	-0.482436	6.014183	106	118	119
13.446756	-2.969043	34.218102	187	189	184
2.623355	-0.868438	26.284307	61	66	74
4.030591	-1.102784	30.059179	109	111	111
2.531553	-2.615150	29.251118	67	72	71
1.042695	-3.736525	13.914194	100	101	101
5.025594	3.594693	25.648115	144	139	141
19.351303	6.059122	37.022049	214	214	200
18.656639	6.042484	35.496975	205	205	187
3.018210	1.039514	28.039202	179	184	190
5.285115	-1.801645	39.306160	98	99	104
7.319213	0.737313	32.634369	206	206	214
3.166448	4.238850	35.024235	88	93	101
3.234809	2.780207	23.678692	210	210	218
2.086219	-5.218951	19.248865	105	108	110
5.078495	5.073982	26.911343	128	131	139
3.901528	3.393789	26.946545	101	101	109
0.049995	-0.836105	3.638707	172	174	175
7.122097	0.165457	31.305695	107	106	108
1.794901	-4.284667	19.075474	38	40	40
18.141386	5.019525	34.515026	198	203	190
14.017416	-3.051548	33.421249	142	148	143
11.265065	-2.295701	27.074739	41	46	40
2.792645	-3.903399	18.098709	60	66	69
11.599573	-2.207619	27.186977	141	146	140
1.658230	0.571472	15.824541	130	133	144
4.315123	4.115498	25.707451	167	170	180
5.617232	5.400454	25.369555	162	166	170
0.780872	-2.397229	10.204354	183	185	185
0.697389	-2.752680	13.467284	142	151	150
4.229653	-5.519116	28.095793	180	181	186
-0.229906	-4.776111	44.624523	116	119	128
3.773292	0.166801	21.090717	128	161	166
0.855930	-3.075769	16.443342	138	137	152
1.543880	-3.694434	20.163094	127	132	132
10.369614	-2.067693	27.737841	193	196	193
2.935751	-9.655239	42.317539	41	41	49
2.706417	3.179748	24.868856	51	55	57
1.282110	-2.846926	12.672888	36	38	38
18.772287	-3.494937	37.592384	32	37	33
11.966372	-6.515404	48.571625	72	74	77
1.153801	-3.450490	15.836842	54	54	62
2.737759	-7.160273	30.616753	138	139	142
2.892200	-1.668036	32.087345	57	62	68
1.540474	0.472267	25.875992	159	164	172
4.479993	-1.225063	33.421352	121	122	125
4.230353	0.068172	19.043564	174	171	176
5.028903	0.483835	22.450882	209	208	213
5.135640	0.732862	27.744749	200	208	214
12.862368	-2.490336	31.025923	21	26	21
4.447381	0.792136	23.333941	20	32	30
0.351139	-4.076148	17.606499	172	174	175
13.288891	-2.468638	30.797424	120	121	116
1.226472	-2.939662	13.027026	54	56	56
1.205183	-2.686626	11.906899	46	48	48
1.067638	-3.260916	15.039694	51	51	59
3.548858	2.836446	26.497761	26	20	25
3.317679	3.628532	28.315495	22	24	26
2.403737	-3.313618	15.454519	37	44	50
3.139079	3.818311	28.851656	42	48	50
5.240008	5.288169	27.605637	169	174	180
0.644468	-2.427884	11.970488	157	166	168
3.729117	-4.872781	24.664146	164	167	171
15.614391	5.095072	29.752268	68	69	50
10.441607	-5.803927	44.140972	158	157	159
4.779310	0.249236	26.421215	80	111	117
15.533743	4.328293	29.587791	206	207	194
3.770043	3.271073	27.302965	210	210	218
1.991322	2.887434	23.864180	110	115	123
18.985136	6.172337	35.429855	28	26	24
2.645921	3.554323	28.718086	192	197	205
16.326717	4.456686	31.852268	72	82	68
3.591600	3.370799	21.357298	179	182	193
9.385835	-2.056059	24.102962	189	191	186
12.064618	-2.308893	32.041729	182	188	183
1.502241	-1.567714	17.746338	52	56	58
-0.015843	-0.369546	1.618791	167	168	164
-8.812732	-3.626845	47.960842	18	23	26
14.628388	-2.707886	29.302845	24	29	25
0.810310	-1.957761	10.723842	105	106	109
4.426317	-2.411307	47.905857	105	109	113
4.236871	3.271532	25.550230	199	201	201
1.454852	-3.249352	14.472801	38	40	40
1.764756	-5.586395	25.487703	44	44	52
14.954332	-2.771281	34.327068	177	176	174
2.939895	-4.037330	18.878733	50	56	61
1.729332	-6.496745	31.822010	115	125	122
2.807612	-3.834015	19.269768	177	178	183
2.098605	3.093984	25.120256	95	100	107
2.830445	2.136642	20.861628	17	11	17
-0.323087	-5.115501	48.202652	116	119	128
1.991169	0.610184	19.204391	139	149	155
4.774586	0.458115	21.537666	216	215	222
3.747399	0.220121	20.648785	196	206	217
2.022296	-0.557775	15.013418	24	28	30
-0.013455	-0.313361	1.372508	182	183	180
10.511529	-2.291215	24.990770	185	189	191
4.338438	-1.451970	31.939854	41	42	45
10.427449	-2.073867	25.401075	24	29	23
2.316897	-2.204814	27.077351	61	64	71
9.682260	-2.184528	25.140522	188	191	186
8.325613	-4.693127	35.665001	158	157	159
15.516771	-2.906023	38.398388	52	52	51
4.498917	4.066436	27.063944	184	185	189
4.921105	3.573336	25.857523	153	151	152
2.639159	2.977605	23.187462	10	13	15
14.919767	-2.979092	39.291111	198	200	196
4.239485	-1.411080	31.337730	43	45	48
1.736351	-6.026350	32.035767	132	133	149
7.188605	0.881967	39.139904	146	175	181
7.783387	1.678567	41.033020	35	69	73
2.527836	0.846572	24.349232	139	149	155
13.741831	-4.853130	34.010689	69	74	73
2.517509	-1.842930	28.926590	170	175	174
0.937804	-2.268564	12.656285	67	73	76
2.435362	0.543302	19.613754	207	205	213
2.098915	-2.127602	25.915812	62	65	72
15.749767	-3.225117	36.757545	203	208	207
1.321493	0.524086	23.649206	170	173	182
-0.233280	-3.684397	34.717686	133	136	145
-11.110452	2.731531	33.093418	124	138	152
1.050682	0.528987	23.926584	176	179	186
15.549113	-3.043204	37.794624	47	52	46
5.055697	0.319911	22.808979	193	194	199
6.546861	0.532262	34.338684	216	213	221
8.116623	-4.821694	34.417969	121	127	130
14.828041	-3.130786	38.801014	201	203	198
2.162308	0.921255	18.101089	42	47	55
8.902688	-3.179249	21.635206	37	41	43
2.211613	-1.636541	24.802937	134	139	135
11.106103	-5.040082	34.328480	60	65	70
1.718163	-0.001469	37.546669	107	110	117
