-11.948186	-0.930978	32.454395	33	26	26
-11.229696	5.073510	37.096786	53	32	30
-9.982603	0.328140	42.061932	105	102	108
-9.608843	4.027922	31.762535	34	20	20
-11.674132	-3.966763	40.172935	211	217	224
-10.397098	-3.349504	35.270638	208	202	213
-14.649944	-3.189893	42.859776	7	1	10
-10.838223	4.846629	32.926258	163	163	162
-12.387030	4.708171	32.504589	141	134	132
4.591166	-8.197675	28.842054	14	6	18
-12.302191	-2.508776	39.574577	107	149	138
-10.006447	-2.369392	37.351212	155	160	168
-6.202911	4.375162	31.179184	29	24	26
-11.905910	4.391838	31.634251	12	5	4
-6.433046	4.810905	33.549839	153	141	143
-12.225613	-0.927253	35.173397	152	146	151
-15.837413	-6.246868	29.886332	129	128	133
7.896517	0.005516	16.387705	84	83	88
-9.843973	3.916734	31.897058	107	93	95
4.287988	-7.265451	25.936167	98	89	102
-9.855458	4.049823	33.996494	48	26	20
-15.106488	0.425552	40.599293	181	172	164
-8.206395	0.765036	49.420502	171	169	177
-5.368736	0.680743	40.138874	167	164	170
-9.760058	3.639380	33.115952	148	146	148
7.468723	0.271659	16.692995	171	169	168
8.305889	0.282329	17.086861	179	178	181
6.846911	0.354353	16.167595	70	68	67
-9.775501	3.441512	31.683784	156	145	152
-11.065145	-3.132897	38.379047	91	162	158
6.008656	0.436930	14.281820	83	81	79
-7.745843	2.582346	33.244610	141	123	125
-6.724299	3.197953	41.159565	51	36	44
-6.034263	-13.375634	49.118622	202	200	211
-7.315824	3.772400	39.025982	30	25	23
-6.106841	3.067128	36.819656	29	21	29
-8.855587	2.884021	34.388214	20	13	18
-13.382267	6.876661	26.704704	136	127	121
-17.009876	-8.228587	32.601906	228	226	232
-6.913809	3.548253	37.940151	19	17	18
-12.990990	7.234287	27.626549	82	73	69
-14.762899	-6.082287	27.751583	124	128	132
-13.784758	6.102991	28.043198	122	117	114
-19.101091	-7.900063	35.904377	127	131	135
-16.125469	-0.435717	28.138121	121	118	107
-6.901641	1.423527	36.707516	223	216	219
-8.902376	-0.922306	43.014778	3	22	23
-13.525570	6.158805	30.467566	120	116	108
-12.263319	0.873127	40.201424	12	3	2
-8.411943	2.259746	36.487442	178	131	131
3.669099	-4.100950	22.158760	18	15	38
-1.444071	-4.592436	35.591343	151	138	148
-13.139857	4.485360	40.116791	100	101	106
-5.589586	4.176569	29.140800	125	120	120
-10.465342	-2.673858	38.625965	0	15	15
-9.918229	4.131065	32.737572	65	50	51
16.230982	-4.656613	38.150494	183	187	193
-1.768942	-5.482492	41.186752	130	118	130
-13.974833	6.324977	31.413090	113	109	101
-9.909537	-3.255467	33.815479	171	168	177
-11.701659	-0.950177	31.699417	75	68	68
-11.494936	-3.219074	39.564606	89	143	138
-14.253613	0.410491	38.311256	182	175	173
-14.412773	-3.222604	42.130020	25	18	29
-7.771342	5.510099	35.546341	19	16	14
-12.624665	-0.789568	35.387421	13	9	13
-10.686687	4.768975	32.419121	140	141	145
3.886438	-7.013891	23.832344	127	142	165
-9.437387	4.926027	33.972347	171	152	134
-11.790361	4.461924	30.912500	148	142	139
-9.548744	-2.251802	35.656906	146	153	160
-6.194722	4.337605	31.049601	37	33	35
-8.313103	1.559166	35.863003	68	66	65
6.224205	0.466188	14.779550	83	81	79
7.835248	0.545359	18.546495	87	85	83
7.112147	0.370283	16.807270	128	126	124
-7.778763	2.551480	33.609249	127	113	113
-7.671674	3.344823	40.371658	31	21	22
-9.015384	2.907002	34.885899	8	1	5
-12.252173	-0.953162	35.068722	156	148	151
7.629462	0.270106	17.032639	205	203	201
-9.309752	3.998570	32.832996	101	75	68
-9.624858	3.765003	31.306223	139	125	129
-10.686568	4.323710	36.792397	24	14	19
-9.745893	3.614707	32.959229	94	91	93
-10.707604	3.760682	34.602245	122	112	116
-5.495520	3.246243	34.848137	36	23	31
8.952407	0.049363	18.574015	48	47	51
7.293212	-0.033516	15.951735	117	116	119
0.202414	-0.235860	0.979585	38	37	30
-13.862616	6.124401	28.163559	87	84	78
-8.896341	-0.973356	42.945072	6	15	19
-11.351048	-2.257283	34.182365	216	214	215
-6.013473	-13.340733	48.954487	201	198	212
-19.885645	-3.460877	41.242626	126	126	123
-12.619574	-2.617128	40.678696	103	152	139
-5.490057	0.690239	41.017090	95	92	98
-9.002167	-3.452941	36.915264	29	42	35
-16.209366	-6.402330	30.515215	102	103	108
-10.862650	-2.368736	37.430199	92	161	155
7.745573	-12.251052	48.096031	121	122	132
-7.674386	4.883747	34.137077	64	38	42
-11.391463	5.155280	37.619122	53	32	30
3.429888	-3.837741	20.725424	38	35	57
-15.889366	-6.069332	30.332451	116	117	122
-14.769136	-6.104680	27.804462	107	111	115
-15.858294	-7.671087	30.418869	153	151	159
-9.595619	4.858904	34.469688	169	158	136
-13.700221	-2.675711	40.941917	114	111	115
-9.347003	4.032710	33.099377	101	75	68
-6.059047	3.633769	37.683582	18	9	16
-10.380114	3.706999	33.622845	73	66	70
-14.957557	-3.309500	43.876564	6	1	11
-10.169892	-2.355124	37.690567	146	153	160
-9.878316	3.665878	33.262794	101	92	96
-11.056153	4.439085	38.035728	26	16	22
-9.351143	-3.149634	32.192348	215	213	221
-7.291922	3.647160	38.953896	38	24	26
-7.388372	3.299003	38.869385	40	28	30
-9.298029	2.936908	36.018139	10	1	7
-6.101343	2.942578	37.290928	52	37	45
-8.544132	3.497540	27.950148	28	17	19
8.245105	-0.012299	18.029282	203	202	207
-12.621546	-0.782707	35.497635	13	9	13
-7.173693	4.972928	32.643959	23	5	6
7.709076	-0.036908	16.676998	88	87	90
-6.279778	4.340035	31.536757	62	56	59
-6.007215	4.708322	31.546515	112	114	111
-8.363359	5.474102	37.177425	48	16	22
-10.153497	-2.680620	37.633572	6	10	12
-10.590881	4.712987	32.205643	92	93	98
6.764129	0.352928	15.987267	128	126	124
-6.860661	0.684296	41.109818	115	113	121
-13.461958	-1.005032	36.071991	96	89	89
-12.311651	-0.981986	35.211792	126	116	117
-9.593476	3.736011	31.135527	68	55	61
-13.601957	6.083042	30.464800	112	108	98
-8.058391	2.629509	34.783684	81	68	68
-5.738338	0.806526	44.387695	103	100	106
-14.692514	4.010532	40.352844	19	8	2
-13.122635	5.768083	26.698496	74	72	68
-13.643615	0.367653	36.540981	185	178	178
-1.885651	-5.845461	43.942322	130	118	130
-9.437882	4.199957	31.215488	156	140	140
-9.259032	-1.044677	43.312759	71	72	77
-19.728872	-3.462692	40.903130	60	60	57
-9.579642	-3.610577	38.846607	25	37	31
-13.631866	5.819989	26.930473	110	109	103
-11.238943	-3.094460	38.701916	95	161	156
-9.517378	1.830963	41.170586	122	120	116
-14.946295	-5.690647	28.534472	102	100	106
-17.402880	0.474683	36.438622	132	111	106
-15.064826	-6.208543	28.309296	107	111	115
-10.832185	-2.141917	32.485699	159	155	158
-7.424184	5.803640	38.737404	52	51	49
-6.602772	4.508773	30.046276	23	5	6
-10.601495	4.710312	32.433979	52	51	52
-10.577906	3.932588	27.621645	138	131	128
-5.643599	3.332644	34.998829	136	130	137
-7.687148	5.256682	38.702271	53	30	38
5.201653	-5.199912	20.447002	53	40	58
-11.249629	4.173295	36.467545	158	147	156
-6.904590	3.334975	36.841362	44	29	31
-6.756300	3.026620	35.690464	84	74	75
-14.756632	-3.355584	43.298309	7	3	12
7.555688	-0.034109	16.350101	88	87	90
7.289025	0.444579	17.250603	198	196	194
7.200628	0.180603	16.062937	206	201	200
7.878041	-0.031388	16.460691	188	187	192
-7.540234	2.470688	32.687534	169	152	153
-14.519326	6.391502	29.549770	54	50	48
-6.915915	3.313673	42.190731	52	37	45
-16.213589	-1.086725	42.767723	27	21	21
-8.788857	2.689129	33.945778	11	4	9
-5.950541	0.651791	46.083302	54	51	55
-13.449123	5.988799	30.092924	112	108	98
-10.728159	3.993845	36.014900	144	138	141
-10.414579	4.095325	35.808025	46	35	42
-10.144030	4.461817	35.737236	172	146	135
-15.137502	-0.339137	40.380508	31	29	25
-9.599200	4.263841	31.734833	156	140	140
-9.862395	-2.650856	36.579937	5	12	16
-9.800809	3.044708	33.833916	100	98	99
-11.848902	-4.007438	40.681572	113	117	127
-5.290524	0.471072	32.236427	65	63	71
-9.198674	-0.992154	43.208576	112	115	120
-13.365679	6.359441	29.908815	13	9	3
-11.930138	-0.688711	33.622913	11	8	12
-14.242684	6.052480	28.074211	71	70	64
-14.283115	-1.094396	40.688507	156	148	151
-17.346794	0.469822	46.072021	110	103	103
-7.871274	-2.954524	31.937181	22	29	28
-14.351623	3.886284	39.373497	27	15	4
-1.536619	-5.090379	37.799114	140	128	142
5.085106	-3.386340	33.549122	32	24	37
-15.709819	-6.455212	29.554728	102	106	110
-13.273148	5.856826	29.394905	115	107	96
6.215961	0.565999	14.539854	39	37	38
-5.705171	4.542486	30.389444	34	14	19
-6.993439	4.726014	31.572842	42	10	16
-9.641856	4.320548	29.789040	155	153	149
-12.192762	4.577382	31.496349	144	137	135
-7.643901	4.577688	42.680252	45	28	31
-10.949530	5.618289	38.876503	171	156	135
-5.953782	4.157465	30.364443	22	10	15
-12.484356	4.190894	31.565247	215	211	208
-10.868573	4.465200	34.566948	15	13	16
-9.666781	3.895897	33.454308	24	14	19
-9.902195	3.676034	32.202034	143	132	139
-6.720850	4.093841	41.452686	18	7	14
-6.597038	2.983279	34.935276	51	36	38
-5.296089	2.630004	32.511211	35	24	33
-9.503438	2.970829	36.536484	14	3	10
-7.554108	2.120749	27.302324	32	26	28
-8.114861	2.710956	35.210072	169	152	153
5.737162	0.342012	13.553056	44	42	43
6.243008	0.133247	13.935632	204	202	202
-1.554558	-5.170832	38.806072	153	141	153
-6.026724	0.614309	46.779102	57	51	56
-12.284153	-0.783533	32.442261	6	1	5
-14.536523	-3.233042	42.663822	6	1	11
-14.326115	-2.688999	42.571140	159	155	158
-14.142124	-2.731940	41.829632	114	111	115
-9.473399	3.532702	24.670227	140	133	131
-12.996190	-2.465279	40.901505	19	11	17
6.934352	0.432922	16.315849	36	34	33
-5.891493	4.729699	28.746105	31	25	21
-11.915545	4.816146	37.524235	13	12	15
-7.805835	2.156221	28.143049	33	27	27
-9.016702	2.679754	34.494514	13	5	11
-7.451413	2.557699	32.992588	178	167	166
6.395427	0.152950	14.334538	206	201	200
-5.532285	3.233356	31.554268	40	26	28
-6.977018	5.037990	33.931683	156	156	156
-13.088729	4.835891	32.749447	69	62	60
-5.872387	3.566946	36.183823	24	16	22
-6.167698	0.528342	47.690918	57	51	56
-8.102788	6.374653	42.713726	57	29	36
-13.426272	4.490044	33.924984	171	171	174
-7.683881	5.319144	34.721485	42	10	16
-11.503575	-0.257985	30.394310	10	1	4
-5.451471	2.717419	31.114321	141	144	147
-7.651219	-0.545634	36.235031	94	93	98
-9.805213	4.462105	34.857410	180	146	130
-11.478554	-0.714727	30.332235	4	1	5
-8.597313	5.988737	43.027824	28	12	18
-8.759228	3.912072	27.171278	155	153	149
-7.092850	-1.066431	35.305416	8	8	16
-14.121313	-3.360298	41.772942	0	2	10
13.845297	-8.438072	47.192284	23	5	14
-11.471674	5.168395	35.599964	171	166	161
-6.547603	0.524225	49.237198	52	49	53
-16.635841	0.688943	43.323299	190	174	172
-9.047810	-1.689894	28.506075	20	17	23
-13.998554	-2.579754	41.051281	132	127	129
-9.772062	4.753968	34.211205	175	155	135
-0.009792	-0.156097	1.523621	132	119	137
-0.010290	-0.154817	1.500720	157	157	164
-13.999203	-3.325334	41.057449	12	12	21
-11.104201	4.461979	35.134098	14	12	15
-5.541875	2.654896	29.491161	55	41	43
-12.987705	5.058167	42.552078	91	78	86
-5.157599	3.222744	31.308456	23	13	14
-14.734807	5.504292	37.846378	138	131	128
-5.103631	2.984447	29.114662	82	65	68
-7.258261	4.866219	32.281578	68	33	37
-11.549164	-1.074968	29.236847	162	162	156
-7.933138	2.637730	36.162029	127	40	41
5.679943	0.233655	15.772629	134	132	130
-15.881191	0.331132	41.783260	123	122	117
-3.912786	-0.001658	29.824471	54	48	53
-6.348649	-1.863005	32.280609	41	52	68
-10.968624	-2.978185	37.575375	96	159	157
-12.539506	-2.243402	39.030144	20	17	23
-13.861504	0.611159	40.357365	98	74	40
-13.766134	-2.595513	40.103523	111	106	108
-10.364993	-1.043541	28.341028	186	177	173
-11.289682	4.045371	39.565384	25	23	24
-9.946275	-2.427777	27.769482	90	140	139
