6.917077	0.388293	39.414982	57	53	66
11.377301	-11.560501	46.338055	23	23	43
0.381321	-2.090423	26.114664	182	174	193
15.896002	-2.367700	29.911327	155	153	163
10.505062	-2.952310	41.146973	133	131	143
12.824447	-2.055186	28.010677	114	112	124
6.945871	3.874286	19.736691	45	36	28
9.056638	1.016760	36.527977	25	21	11
9.328719	1.147343	40.738346	24	15	32
11.803879	0.101002	27.100599	35	17	14
-2.300999	-3.023502	49.031818	184	182	194
6.393232	0.062179	37.739357	162	157	173
10.586538	-0.363202	20.277651	216	206	210
1.816362	3.463171	25.728065	50	71	33
2.177034	3.250868	24.610828	189	185	191
2.038311	3.298048	25.277252	207	204	208
-2.003058	-2.625602	49.025234	37	23	47
-0.528464	-2.107844	39.840096	30	28	48
10.457999	-4.054271	39.715431	22	21	36
1.915807	3.350602	28.354288	186	184	189
7.415326	-0.230713	34.874233	171	170	181
1.321897	3.635740	33.659084	59	56	71
6.708473	-1.581308	33.622272	192	192	219
8.626884	-0.525708	36.112827	33	35	45
10.990719	-0.469870	22.294319	230	192	208
6.937182	2.170626	27.503986	194	186	192
8.304068	-3.378151	30.559729	130	130	140
11.189709	-4.371669	41.218639	149	149	160
6.501732	2.564739	29.381874	216	199	186
-15.955749	3.102911	36.123524	26	24	34
6.761306	-3.297191	30.941721	41	36	52
10.008121	-2.517499	40.816898	10	7	23
6.780032	-0.635894	28.443827	9	10	15
18.135481	-3.405986	43.929279	166	165	182
-16.968510	-1.627249	41.684193	213	206	202
7.276184	-10.965823	48.007442	170	170	196
1.969672	2.886501	24.419813	222	220	230
15.538770	-1.963277	33.350597	7	7	19
16.478123	-2.415537	30.537128	126	121	125
3.950102	-1.605805	26.872332	26	25	45
7.700696	-1.500956	29.220881	181	177	190
7.117068	-2.814311	28.531645	25	25	33
7.624739	2.338122	26.921640	174	169	168
11.742649	0.927853	25.411049	87	66	55
7.024745	-1.135889	26.001209	7	4	16
-0.512289	-2.917939	41.691063	42	34	53
2.062513	-3.200829	34.623333	206	203	230
2.488438	-3.371598	31.602371	151	148	163
-17.154919	-8.654347	48.192062	165	160	170
8.009115	-1.248389	34.859421	22	17	24
7.656184	1.474313	26.933666	44	38	30
8.071662	-1.179563	33.805645	16	11	21
4.864297	-0.226384	26.149590	124	122	133
6.314296	2.462183	25.261557	207	180	143
10.963123	1.079157	21.352003	68	43	32
0.491833	-0.104905	2.531078	202	184	187
6.209620	1.895884	24.365213	203	195	204
11.369825	-4.611486	41.969212	143	142	156
5.488034	1.965869	25.205458	241	211	163
11.424391	-12.060591	48.142529	190	187	223
6.482283	3.613364	18.916794	102	91	86
5.686202	2.204270	25.824055	224	201	173
2.479985	-2.766551	26.709684	134	125	138
10.219127	1.146194	41.210747	15	15	19
10.722563	-4.077659	40.681171	15	14	27
9.375082	-3.689155	37.666058	8	8	18
8.951855	-1.761326	33.892273	168	164	177
8.050661	-0.249141	37.874382	46	49	60
7.193295	-1.504118	37.700741	50	43	50
10.832027	-0.365346	20.753540	215	208	208
20.217983	-2.963029	37.861633	82	80	90
10.525105	-0.425025	21.375572	233	202	215
11.002379	-0.702918	46.404072	9	6	14
16.285816	-2.335326	36.540482	4	2	16
2.219571	3.336461	25.261379	190	187	193
2.192235	4.159603	30.910374	67	84	54
2.461889	4.035224	30.549011	170	169	170
2.378546	3.535569	29.507895	133	129	140
5.510665	-2.237846	37.730167	26	25	47
22.376865	-7.905153	49.655365	141	139	159
-3.242720	-2.511302	45.720592	102	99	116
10.031123	-2.599529	40.676811	8	6	20
6.952308	-1.492537	37.388016	36	33	44
8.725908	1.108671	38.024174	24	15	32
6.326968	0.477410	33.618881	156	154	163
18.074465	-2.289024	38.844418	3	3	13
10.795364	-11.071041	45.975842	184	177	201
6.591599	3.684283	18.748535	45	36	28
10.353897	-3.364979	40.399342	133	133	143
5.686577	-0.240849	30.627806	123	120	134
7.700385	0.069386	45.359402	126	121	137
1.724024	-2.682630	28.590448	182	180	206
0.522648	-2.918426	37.006088	148	141	160
15.000578	-0.391384	31.738037	65	67	77
10.902911	-0.160060	22.968176	195	193	199
10.719121	1.058748	20.918015	101	77	70
0.466286	-0.084421	2.257457	122	116	118
-17.296377	-1.648785	42.498451	213	206	202
7.701755	-1.226467	28.539440	43	41	52
-0.555492	-3.001099	43.553223	42	34	53
6.340278	-0.428817	27.850313	43	34	47
11.478210	-4.879620	49.391941	45	45	59
-15.741156	-7.060584	45.054501	19	15	27
10.765944	-0.719082	46.742546	29	17	31
-3.178308	-2.021348	42.186012	60	56	69
2.026270	3.017746	25.193363	143	140	149
8.040864	-3.268248	29.933695	143	142	156
9.218129	-0.399923	18.816988	233	202	215
15.105677	-2.227194	34.121868	4	3	16
11.144309	-0.862236	47.189472	8	2	9
8.936315	-1.730825	33.961491	143	139	152
12.528755	-0.434853	23.993298	219	211	212
2.250603	-2.502914	24.053698	175	166	179
6.149209	2.367480	28.055273	221	189	137
-19.661882	-7.351457	48.485836	218	210	207
9.349442	1.013497	37.905087	17	16	24
7.774667	-2.974015	29.583988	15	14	27
10.169168	-3.987402	41.067997	8	8	16
5.438709	-1.289528	27.560465	160	160	184
6.620104	2.029540	25.955383	215	209	216
5.943230	2.157119	27.483053	157	118	63
1.864480	-3.650036	15.257925	159	153	184
2.113352	3.859514	32.212345	186	183	188
7.075884	-1.573323	37.370369	34	30	37
11.294507	-3.023025	44.544136	71	68	83
-1.811178	-2.323682	37.060486	84	83	98
-3.270272	-2.369174	41.804935	182	179	196
6.092413	3.036879	38.648151	32	34	43
17.188671	-2.759769	37.538013	123	120	133
19.928949	-2.909845	37.293171	126	124	134
16.052671	0.113277	36.874825	12	0	0
-9.888222	-5.120459	28.290747	203	190	195
10.347124	-0.165312	21.886822	115	110	117
8.822207	0.649359	47.265785	71	69	77
-20.109327	1.333562	45.652973	27	27	22
10.829809	-0.230707	22.355829	67	62	71
4.216759	1.634456	26.805672	105	98	114
4.548343	-1.872993	31.223566	26	25	47
5.088523	2.882565	15.662385	136	123	118
9.874196	-4.187396	42.512871	45	45	59
12.358099	-2.917495	47.100323	8	4	18
7.454005	0.083929	44.071880	140	135	151
16.656996	-0.405260	35.092022	36	36	46
9.381842	-5.272886	42.537552	11	11	26
12.253480	1.237956	23.852743	101	77	70
2.966984	-2.256238	26.079329	164	155	177
5.900757	3.288536	17.218090	193	183	176
8.053837	2.477221	31.614231	211	205	210
17.941656	-0.482137	37.745571	48	48	58
1.576410	2.961025	22.495241	123	144	106
2.370037	3.619568	28.266180	193	191	201
2.037776	3.024638	25.247778	143	140	149
8.943316	2.580952	24.452129	171	151	138
7.336389	2.765393	33.681271	219	181	117
7.924255	-0.128952	37.333130	76	77	89
9.409294	-0.137305	19.904541	195	193	199
10.487185	1.101338	43.214436	19	15	22
6.588737	0.283064	37.386433	17	14	28
13.166399	0.056354	30.421349	12	0	0
9.749588	-0.276556	20.178402	80	71	81
4.187616	-0.306308	22.946896	120	118	133
4.744507	0.289504	25.490940	156	154	163
9.961467	-0.417717	20.324558	183	154	169
5.457671	-1.327932	29.280701	23	22	32
15.879773	-2.074191	34.235973	9	9	19
-1.500767	-1.923927	30.612238	153	152	169
9.061275	-9.217309	37.352463	66	63	82
14.607441	-2.177686	33.180691	8	7	18
12.205660	-1.962272	26.851637	152	149	164
7.299616	-2.895211	29.737537	8	8	16
9.874041	-4.187329	42.512199	45	45	59
12.587325	-4.856513	47.702465	73	72	87
1.988104	-2.215396	21.047197	175	166	179
7.838255	-4.481273	35.383678	6	6	19
4.780499	1.829863	30.147234	130	122	135
6.519879	1.810076	24.087727	41	34	37
1.787884	3.283155	24.802290	51	69	36
2.056082	3.114055	24.313780	201	199	207
3.910529	-2.141628	18.215334	139	136	153
8.824035	-3.645070	33.144432	108	107	122
4.444178	-1.872257	19.209642	19	19	31
8.483477	0.893233	34.573296	17	16	24
5.215924	0.584324	25.941652	23	20	36
14.070420	-1.820211	30.213255	2	4	15
15.480016	0.036890	35.898346	19	21	21
10.760052	-0.247921	22.134024	53	46	56
6.624113	-0.591129	28.495777	8	1	8
6.540988	2.569493	28.658581	39	29	32
5.878138	-1.416631	31.112724	23	22	32
18.185621	-2.596004	40.925579	4	3	16
12.098130	-1.983492	26.499269	126	124	136
4.367085	2.542379	29.689371	178	183	197
5.781706	-0.464853	27.872446	15	22	30
6.175567	2.398102	28.087397	224	201	173
7.463725	2.360134	28.994493	198	194	202
7.019028	-1.259422	34.113403	42	37	67
5.157903	0.433978	27.581234	146	144	154
4.647879	2.248500	29.125122	30	30	42
3.589314	3.975074	25.896122	154	203	119
13.161558	-1.816606	28.261759	3	5	15
12.109977	-2.000608	26.885725	98	95	111
-7.090578	-3.523344	23.828835	203	204	221
6.808009	0.713527	33.784153	28	26	36
4.272319	1.875080	27.355858	57	52	67
8.957026	0.980904	37.047016	18	14	21
5.151511	-0.413693	28.420313	122	122	134
16.806065	0.065830	39.089535	6	6	6
3.628221	2.039736	24.836529	178	184	198
6.058245	0.518601	32.495262	146	144	154
7.238369	-0.600391	31.275412	13	3	13
4.449324	4.064466	29.426352	47	47	29
21.495726	-7.840766	47.154839	135	133	153
4.181400	4.708794	30.697348	155	199	124
11.503767	3.685722	44.735172	211	205	210
14.956699	-0.261742	32.728046	38	46	55
8.395868	-1.577507	32.101574	97	93	106
8.437510	0.701017	25.451847	62	52	40
4.567547	-1.829261	19.672289	14	14	24
3.642451	-1.584202	14.160237	164	163	178
5.317628	0.424333	26.976860	23	21	29
3.692858	1.583172	23.671080	57	52	67
3.554552	-1.950005	16.625578	145	141	158
12.422112	-0.051196	29.433987	1	3	7
0.628084	-1.482176	23.610264	22	18	31
-12.318932	-0.651589	31.222933	176	168	176
9.654502	-0.538346	25.810137	46	39	38
9.064332	-2.723818	38.756100	20	18	30
6.715874	0.278919	28.082182	110	101	112
2.145383	3.134210	24.875059	173	171	181
8.495008	2.711716	32.989292	203	195	204
4.442127	1.559937	30.237522	173	166	176
-14.237888	-4.862501	34.751656	42	39	43
4.640770	2.685369	33.209248	180	185	203
17.848858	-1.079196	47.553585	53	49	63
-12.318932	-0.651589	31.222933	176	168	176
5.785258	1.099776	25.235592	163	159	158
