-18.576412	-4.893043	35.054371	174	151	80
0.278675	0.843514	28.485928	213	216	225
1.515609	-0.990943	12.996497	189	186	206
-13.589032	-7.368262	39.992989	26	11	17
-3.760503	-3.334275	42.695927	42	29	50
-5.697857	-3.748755	47.979958	183	181	193
4.952219	3.082101	20.471739	25	23	33
-2.728337	-1.786233	22.966341	13	12	23
-17.625301	-4.583449	32.620453	208	188	115
-16.784313	-3.108442	43.171776	205	195	207
-0.063356	1.462450	35.693794	44	53	34
-3.183474	-11.957445	38.896915	157	167	164
5.217008	2.314357	17.065016	13	10	20
4.805255	2.396074	17.280821	29	27	35
4.687796	2.295217	17.168140	222	220	230
6.058177	-1.776297	22.264368	205	200	217
5.396258	2.281954	16.959394	69	66	72
-4.141708	-3.699894	43.955162	186	171	193
-16.213697	-10.751721	43.498203	89	73	73
15.472692	-3.211746	36.032578	150	141	152
13.092358	-1.747606	30.195019	17	15	17
4.888216	2.190441	17.953144	213	211	221
9.948832	-3.153412	34.985966	197	194	211
6.686058	-11.420332	45.660168	212	202	229
-18.000612	-7.138578	44.861938	181	175	185
9.635323	-3.692094	33.192436	23	22	32
9.264845	-3.057101	32.147766	56	50	59
11.336946	-0.457047	25.668257	151	153	176
1.217275	-0.473812	9.923442	172	174	186
12.671661	-1.180712	24.682877	34	24	28
-15.560601	-5.849030	38.022213	36	32	43
11.729137	-1.008870	22.488663	24	24	42
-13.877735	-6.692400	44.622284	144	140	156
1.641854	-0.980660	13.730991	55	27	30
2.859354	-1.836883	19.420082	160	163	174
3.186723	1.402427	16.879257	44	37	35
-15.067960	-1.534812	37.764893	43	39	38
4.734576	1.713718	23.403597	185	168	163
-16.047127	-8.366784	38.996208	20	4	3
-14.819735	-1.525217	37.527588	27	21	21
5.508382	-1.362298	20.717724	77	68	80
10.833842	-3.081029	31.730822	50	25	44
6.517147	-1.963204	23.421021	85	79	92
0.280713	1.225336	33.255989	192	192	200
0.148767	1.258045	34.112221	210	211	216
-0.295339	1.701564	46.968372	185	184	189
-3.175472	-13.445202	45.306717	136	153	148
-13.415855	-7.539993	44.295071	160	155	176
0.147470	0.967891	33.608284	204	202	212
1.396140	-0.438478	13.708935	144	141	156
7.719873	-5.821375	46.318729	28	30	44
5.343747	-1.362330	49.476498	18	14	27
17.456758	-2.303355	36.012825	46	37	40
8.390368	-0.161434	18.030277	62	62	70
-15.697854	-1.758026	27.999933	187	178	169
-17.288923	-4.416710	32.366192	71	35	5
9.803444	-3.755968	33.107086	149	147	157
4.162332	-4.613068	34.056713	152	150	162
-0.057665	-3.074920	26.734734	194	192	214
-14.968235	-10.450290	46.862614	54	37	33
9.628286	0.059691	20.113710	35	31	42
9.047951	-0.384894	19.236982	45	49	59
10.780286	-0.355370	22.337620	44	46	69
12.271369	-0.019964	24.288340	35	38	49
10.023951	-0.042094	21.405176	174	172	182
10.881841	-0.321354	21.539431	18	22	36
10.368548	-0.229353	20.946964	36	37	57
16.060150	-0.391683	28.548904	204	204	212
11.788613	-4.089990	33.712646	141	143	154
2.005539	-9.144772	38.165314	169	166	195
-0.748401	-10.930121	35.595364	180	182	175
1.380345	-0.615820	11.082288	16	13	26
-21.477646	-6.982764	40.795914	37	27	26
-0.147788	1.903811	45.916191	101	109	99
0.172393	0.994776	27.638887	210	208	216
0.293219	0.917117	30.491953	173	173	183
-2.420890	-10.384562	34.879738	157	175	174
11.842805	-0.297839	23.927908	57	60	82
8.979802	-0.425685	19.190310	20	27	38
-3.824342	-2.571238	32.232868	163	162	177
9.534295	0.082655	19.953547	44	40	51
-14.112627	-7.713220	41.579311	21	8	13
0.152067	0.493154	16.985132	183	181	191
4.785503	2.144911	17.594448	213	211	221
10.981488	-4.220594	37.101479	103	101	111
7.515077	-5.883890	44.132477	140	143	155
-19.238581	-4.908177	35.878086	71	35	5
5.692051	2.543482	18.661854	16	12	23
6.089970	-1.756951	22.412371	152	147	168
12.079329	-1.116298	23.529047	34	24	28
3.865344	-1.496842	31.726707	172	174	186
4.629858	2.274960	16.601976	41	39	47
-2.467931	-1.618499	20.776836	95	94	106
12.623837	-0.010132	24.887737	35	38	49
11.016776	-0.358357	22.828625	74	74	92
3.146987	1.331448	17.115828	208	198	195
-19.453554	-7.554819	48.501591	175	171	180
3.371048	1.477752	17.864782	103	96	94
10.345613	-0.064450	22.107883	132	130	140
3.778550	-2.420546	25.613657	160	163	174
6.545931	-2.025964	23.657764	53	49	66
11.132398	-3.559574	39.198582	101	100	118
-19.188772	-7.665852	47.850063	206	199	211
14.712905	-3.072633	34.328270	107	106	112
10.748627	-3.491234	48.839149	35	31	46
13.256499	-1.396521	29.568882	56	33	29
-13.012641	-6.255305	41.618927	100	96	113
9.985287	-1.345112	23.030285	11	9	13
-21.455290	-6.957380	40.754139	37	27	26
3.833322	2.368137	15.926911	25	23	33
11.483389	-0.996338	22.017349	51	48	67
5.899975	2.482082	18.514505	66	63	69
12.800279	-0.370111	25.338142	32	34	48
-15.437674	-7.986237	44.478329	199	172	178
4.065226	-0.043986	38.322384	197	171	95
-15.308192	-9.216725	42.923710	158	141	141
7.025683	-2.417004	24.509184	45	38	47
1.931745	-8.726122	36.589520	169	166	195
8.758148	-0.171232	18.819876	56	57	66
-3.050357	-2.709036	34.639290	42	27	49
2.319325	-1.516323	20.031170	178	171	188
0.929194	-4.285474	35.421692	162	153	168
3.148868	-2.547609	20.899395	35	37	51
1.950202	1.468270	33.749462	50	51	30
6.540936	-4.980554	39.547943	53	55	69
1.404539	-3.231491	29.086946	38	26	41
-15.770341	-1.730713	39.811047	34	31	30
5.459816	-1.370927	20.659725	64	57	69
5.529815	2.001048	27.331825	124	108	106
4.327867	-4.814878	35.532196	152	150	162
-14.574100	-7.614364	35.426575	79	65	67
7.349593	2.812688	23.073235	64	59	63
16.027296	-2.129774	33.203262	40	31	35
3.179974	-1.023545	14.438874	55	56	72
10.406246	-0.463678	23.601351	85	87	108
-12.978715	-14.259424	47.911652	165	169	189
-13.934788	-9.224414	37.500381	133	120	122
-14.637446	-9.794778	44.346588	46	27	29
3.889374	-4.387325	32.178730	126	124	134
5.366714	-5.762053	39.646793	10	8	25
12.157767	-4.193127	42.424011	48	45	54
0.174682	0.863196	25.105150	199	197	207
11.477032	-3.431905	33.785225	18	0	13
4.746098	3.018358	24.231834	219	213	220
10.099126	-0.948477	19.775864	34	24	28
6.049186	-1.737686	22.244200	152	147	168
-14.247992	-7.415286	41.104385	134	105	107
-0.126131	1.548306	37.539398	101	109	99
2.960078	-10.953834	39.856266	158	157	186
6.329926	-5.012561	37.510002	97	98	112
4.946332	2.219317	18.145563	213	211	221
-15.380543	-8.433170	49.899925	157	153	173
6.115458	2.350839	19.221008	39	36	40
-2.474080	-2.255885	28.296062	40	25	47
20.981510	-8.232541	39.441547	116	111	121
-18.645298	-6.943382	45.640751	31	28	38
15.897863	-2.166842	36.375618	26	26	29
4.714995	2.097795	15.623281	16	12	23
5.644498	2.425840	18.139923	211	211	219
4.739182	2.246372	17.953575	10	8	18
13.900908	-4.290032	49.982662	46	42	60
10.218328	-0.013248	19.896061	15	20	26
11.535578	-0.011618	22.722424	28	32	45
5.393916	2.187615	17.505796	164	162	167
4.654496	-4.018232	32.972145	48	46	61
11.811530	-3.752012	41.643299	101	100	118
9.369583	-0.070516	20.087595	132	130	140
5.781706	-4.707058	38.571262	35	37	51
-15.431006	-2.167643	30.517164	204	179	165
-13.385630	-3.473856	25.012398	218	199	117
15.405725	-3.227226	35.948158	107	106	112
10.488344	-0.128996	20.190689	167	170	181
13.380152	-5.137820	45.291519	75	73	82
-17.639091	-7.067924	44.145500	206	199	211
12.475534	-4.260560	35.789265	138	135	145
1.680267	-0.417278	14.922815	27	23	36
5.414629	-9.228536	37.583347	169	155	183
2.591728	-0.156728	36.253567	125	124	141
2.565886	1.107938	13.670853	48	41	39
5.643777	-9.266224	37.298763	27	24	48
5.116169	2.458654	18.759590	195	193	203
6.644562	-1.689065	25.154087	62	52	64
1.731259	1.312019	30.272524	50	51	30
8.336681	-0.230091	16.806705	59	59	74
2.466263	1.662007	15.571945	136	128	138
-13.934788	-9.224414	37.500381	133	120	122
12.252274	-4.847795	42.751507	10	8	17
1.261164	-5.866862	46.243343	134	125	138
4.934114	2.372206	17.539175	31	29	38
5.965672	2.563910	19.172178	211	211	219
6.189028	2.746947	20.491547	27	25	34
8.074830	-2.628767	28.700033	57	55	73
9.066584	-0.068135	19.333908	89	89	98
1.495978	1.076686	26.757816	47	47	31
11.822856	-0.673124	24.478546	147	146	154
5.819635	2.379022	18.727438	192	194	200
-15.933584	-2.279116	31.437027	204	179	165
-18.779440	-7.573220	47.023438	151	142	155
9.925575	-3.790045	33.572163	136	134	144
-15.919076	-1.948773	31.409573	44	39	41
10.747707	-0.037134	21.173157	21	25	38
-10.417204	-5.688900	33.779430	166	163	180
3.145135	1.499334	12.067330	8	6	14
4.274429	-4.677294	34.139877	136	134	145
5.152529	-8.500352	34.449257	104	99	123
3.101251	-10.285181	42.001560	183	188	230
8.385216	-2.459185	30.927944	97	95	118
6.814820	3.247117	25.868366	37	35	45
17.204538	-2.636864	33.889576	13	5	14
2.806190	-0.113684	40.459396	72	70	92
-16.674877	-6.184728	40.888062	31	28	38
9.520646	0.031757	19.716740	20	16	27
-17.018831	-9.493310	49.955215	28	15	20
5.890718	-1.497847	22.393593	66	60	75
-3.433822	-2.931023	34.705601	101	95	116
-16.810226	-3.890485	41.570225	76	52	48
14.490502	-4.968691	41.587315	69	71	82
-10.140924	-5.010162	32.162392	202	198	210
-14.506162	-5.870158	36.645241	151	142	155
-17.272314	-2.371933	33.841915	209	184	172
4.744813	-1.228989	18.138515	66	60	75
3.079495	-0.135536	43.344505	54	52	72
1.730941	-7.654249	31.720325	162	160	199
9.566264	0.086427	19.658829	17	13	24
0.470955	-2.807758	23.847872	17	15	30
4.909122	-4.101697	33.524143	20	22	36
8.108748	-6.550987	48.419395	118	119	134
-14.951653	-5.459598	36.981522	26	25	30
-13.770629	-7.476700	44.281281	166	163	180
0.217770	-0.076753	1.672636	164	164	176
5.240406	2.370953	19.115782	213	211	221
5.761296	2.218799	17.937801	17	14	18
1.310287	0.429861	7.735901	65	48	33
5.612494	2.366239	17.934423	210	208	215
4.793357	2.292356	16.887075	33	31	41
5.413051	2.416599	17.767334	9	5	16
2.545287	1.691688	15.852869	190	181	189
10.206333	-1.423930	30.192087	52	45	45
-13.993485	-1.646587	27.650845	52	45	47
9.452686	-0.476412	19.429428	209	206	220
7.802127	-0.074449	16.555317	136	135	151
4.510204	-4.691447	34.767723	149	149	164
2.502125	1.579975	13.109326	219	213	220
-1.482040	-3.084831	37.290188	93	86	100
-15.660955	-8.840200	46.544563	24	16	27
6.653052	-2.539649	22.518150	112	110	120
11.321212	-1.475271	23.892357	34	32	36
6.746088	-9.947341	40.300816	166	170	203
0.440320	-2.957997	24.426466	103	100	115
4.690240	-4.925304	36.041679	140	141	155
4.252877	-3.408901	29.299372	17	20	31
-13.492274	-4.893481	33.369793	31	29	37
-10.575962	-5.243268	33.554577	199	195	209
6.671482	-5.317764	40.359272	145	149	162
-12.896101	-6.889949	41.241150	181	178	195
2.318260	0.761709	13.494439	90	61	29
1.607625	-0.474660	13.917558	20	18	30
5.390812	2.585023	19.010456	48	46	55
0.766148	-2.915779	23.142279	166	154	166
13.428630	-1.857260	39.723495	41	28	28
-1.187047	-2.723594	31.535631	56	48	65
4.060030	2.657756	21.678545	205	199	205
2.900943	-1.072685	23.171478	174	174	186
5.018483	2.138500	16.087675	210	208	218
0.802686	-0.457662	8.959831	23	19	32
3.461508	-0.173097	49.669865	54	52	72
-0.060025	0.716143	27.379103	153	150	165
0.735461	0.499195	13.529210	49	50	31
13.952809	-4.155995	47.434021	195	190	198
1.101701	1.151549	22.692059	119	138	98
17.576120	-4.732278	48.945293	20	11	18
0.942338	-1.036445	12.717157	178	175	192
2.119470	0.659288	12.411644	99	70	46
2.434980	0.976578	12.734455	47	34	37
-1.346469	-2.658692	32.277763	153	146	160
-8.926950	2.251411	24.224522	22	25	34
-0.888510	-2.479937	30.122250	17	13	24
7.303201	4.919629	45.695217	117	112	125
10.084975	-3.244334	30.497780	17	22	32
2.619598	2.020787	17.759323	23	17	15
-9.089328	-4.835640	29.052048	133	130	143
7.186371	-2.155565	24.443008	218	212	219
4.751676	-5.010215	36.657295	140	141	155
11.332155	-1.729608	33.044250	63	68	64
-17.905073	-6.269454	43.850014	22	20	29
0.719258	-2.866215	23.114899	164	155	168
-16.010782	-5.830693	39.803684	21	22	28
5.446826	-1.628194	18.521694	219	213	220
0.298411	-0.113772	2.233140	96	86	97
5.160987	3.257578	31.722706	178	169	183
4.377113	1.892318	25.783823	218	211	212
5.246647	2.015706	27.415455	36	23	21
3.368560	-2.492435	22.736164	12	15	24
-0.172853	-2.969032	27.027580	100	102	127
-13.737234	3.613553	37.593678	37	32	34
