-1.133090	-0.597568	3.224580	18	10	13
13.467572	-1.768641	36.195000	63	58	75
6.782626	1.989893	29.875803	212	209	215
12.278460	-1.884766	32.997272	35	34	48
7.388673	2.422352	32.882442	20	19	23
9.624889	3.622033	47.640121	219	219	231
8.337754	2.347074	35.135670	11	8	14
10.901482	-6.009496	45.970924	147	143	154
-19.653610	-2.878937	35.345509	37	21	15
7.957455	-4.289407	37.429207	196	194	204
6.081062	1.625399	47.916771	39	12	0
3.926774	0.923009	33.088863	202	172	164
-5.269525	-3.277450	37.446270	174	170	190
13.086869	-2.103676	36.355625	14	10	23
9.146921	-4.794543	43.842167	59	59	69
-1.349009	0.384010	38.526031	47	59	41
-1.132060	0.232363	39.161716	213	218	214
13.021183	-1.570331	31.836700	200	198	206
-4.757197	-3.763976	40.207634	175	159	184
1.881176	-12.528370	45.814392	199	201	230
20.519054	-9.977272	45.599632	134	128	138
15.153855	-3.651918	36.321976	36	31	44
-4.299968	-2.304887	13.483947	188	185	202
13.603405	-3.147406	34.825169	43	41	53
17.216633	-7.961878	37.247517	167	165	168
3.853686	-1.043348	38.476357	178	168	167
-0.983755	-0.005037	39.583576	221	217	226
-12.727637	-5.966609	38.682602	51	46	64
8.217617	-3.736751	41.444782	65	50	57
-6.192043	-2.915356	19.088009	167	162	178
10.746691	-2.225555	26.594112	70	63	75
-2.113957	-12.464070	40.970337	184	184	181
0.810808	0.628067	44.602192	50	56	27
8.735462	-4.271630	47.497528	41	26	28
14.982231	-2.167377	31.990328	82	85	92
3.456071	0.484640	32.368275	103	79	38
-17.674688	-3.309424	32.502846	214	199	190
15.585974	-2.378031	34.177555	82	85	92
13.643370	-2.152739	30.886457	86	89	98
8.649772	-4.414828	42.317673	188	186	198
7.260572	-1.858744	26.493296	170	151	148
4.122730	-3.466880	48.019733	13	16	20
13.318517	-2.499307	34.106190	35	37	53
2.937849	-1.048257	42.366051	42	23	6
-17.733959	-2.774840	44.968117	29	21	24
5.590265	-6.154722	44.843559	31	28	43
17.202194	-5.532204	48.062740	151	148	159
6.110650	-6.738070	46.684364	132	130	141
5.865947	1.369478	39.859726	185	168	160
-3.185317	-5.104573	47.318607	148	143	159
12.276533	-5.920692	43.193779	149	149	161
-25.349417	-4.799455	45.529354	51	16	2
9.693911	-2.462213	35.386749	41	20	15
4.000305	-1.192879	44.544392	189	181	187
-5.609067	-3.001804	16.616440	191	181	194
3.675112	0.514855	34.417751	146	124	86
-4.260725	-3.343254	37.425541	50	32	55
4.820134	-11.480595	46.095734	192	186	203
10.378588	-5.720342	43.750053	103	100	110
14.311826	-1.732695	34.989212	161	159	167
-8.885336	-4.756756	27.855825	111	108	124
-4.137030	-13.187678	44.094875	188	204	204
7.261763	2.315859	31.602299	211	208	216
-0.894712	0.145933	31.948584	190	189	192
4.206764	0.956390	35.317043	223	196	190
-4.481074	-3.545004	37.753223	161	147	171
7.641035	-3.501909	38.627949	65	50	57
12.311739	-1.235477	33.075317	35	32	36
5.334919	-5.903742	42.943069	31	28	43
-10.222562	-3.423616	19.890280	78	66	67
6.643196	2.395598	33.609814	225	225	236
-24.442993	-4.180905	43.407345	172	146	128
11.617745	-1.841780	32.502441	10	8	25
8.661425	-4.665668	40.742668	143	141	151
4.316858	1.219364	35.498524	184	165	161
11.942904	-2.801692	30.869896	38	37	49
16.161509	-2.068788	34.012333	150	150	158
14.163630	-3.540065	33.225708	178	174	185
-0.881867	-0.468713	2.505640	40	27	29
12.366248	-1.883831	33.226700	35	34	48
-10.890353	-5.159799	33.608322	123	118	136
8.212888	-4.207798	40.478233	98	97	112
8.281095	-4.390147	39.885342	59	59	69
15.198592	-2.120949	31.645575	89	92	99
6.870987	2.581851	33.915340	40	40	52
4.781134	2.392937	36.328751	221	216	223
6.943199	2.287178	31.215796	73	70	75
15.932174	-2.306095	33.880501	82	85	92
6.528665	2.141336	33.452530	201	199	211
4.009584	-3.033680	47.166927	156	157	162
5.238812	2.003392	27.924671	28	29	34
7.579966	2.111040	31.969194	11	8	14
7.100709	2.112384	31.214762	214	211	217
4.023841	-3.390188	47.346420	26	29	35
15.060044	-2.369989	34.095814	139	142	151
15.948695	-3.356396	43.707947	44	28	26
13.471505	-2.533116	34.384415	39	40	57
0.702955	-9.066268	37.581287	168	164	198
14.406421	-3.543022	40.952496	21	23	28
15.680866	-3.762765	37.589855	39	35	48
4.497571	-6.994955	45.815422	6	5	17
4.309961	-9.859213	39.177094	35	31	53
13.799241	-6.642313	48.555309	143	143	156
5.096759	-5.409419	48.928200	167	162	178
10.644088	-5.428189	43.957062	75	67	80
3.046479	-1.139860	44.816273	76	55	70
16.286064	-5.239591	45.502472	151	148	159
-0.167973	-4.422741	33.399841	170	155	165
-13.271526	-3.113560	26.834820	108	78	62
7.172898	-3.350055	36.732052	61	47	55
6.583617	-3.271478	35.881268	27	12	14
10.359468	3.659103	23.337437	201	201	198
-25.111364	-3.692305	45.178516	48	31	26
-5.280265	-3.971123	43.038742	169	165	187
-5.077893	-3.986138	44.608059	63	45	70
-14.656344	-2.614197	30.213455	206	181	169
12.152169	-2.831621	31.644135	38	37	49
3.184148	-1.410503	46.265404	73	52	44
-18.324179	-7.393837	45.736538	216	204	219
-15.357777	-2.460835	31.656124	60	47	39
1.728900	-11.951127	43.659271	196	198	225
7.807002	-4.040789	38.765251	98	97	112
13.692481	-3.350370	33.115982	138	136	148
11.222230	3.881275	24.699207	156	154	150
3.114187	-2.781292	37.283222	32	31	33
4.250828	1.112290	34.207794	39	12	0
4.384840	0.941238	36.881882	177	143	131
18.672964	-9.118443	41.650253	73	70	78
3.909524	0.516898	36.492085	147	122	83
0.653552	0.420976	40.758144	51	47	28
-1.030012	0.157544	37.025623	208	210	210
13.702033	-3.637166	32.514473	6	2	13
8.147214	-4.326537	39.306606	46	47	57
-9.959199	-0.232742	18.413971	24	22	23
-20.280607	-6.447878	40.223167	132	127	126
-4.006844	-1.909436	12.324778	159	154	171
6.529191	2.139031	33.416294	182	180	192
3.277888	-5.786088	39.286297	147	142	158
13.063399	-1.513942	31.829519	193	192	200
12.362039	-1.633137	35.072548	124	124	139
14.766982	-1.670105	31.069613	84	84	92
-0.210856	-5.844903	43.733055	98	86	100
4.384332	2.319216	34.416134	205	199	205
0.698583	-9.088339	37.410614	166	163	199
11.347740	-1.913936	31.888342	112	99	106
5.310595	-12.096209	48.225601	27	23	46
14.649612	-1.936697	31.016253	145	146	154
8.498499	2.404743	35.913887	43	39	46
10.260522	-5.275369	42.291679	27	19	32
6.142949	2.298249	32.921562	7	8	13
15.097671	-1.959916	31.377529	62	64	71
7.774682	2.548802	35.030029	69	66	72
6.455536	2.341809	31.687630	37	37	49
7.861346	2.491064	34.184212	213	211	216
-24.777384	-4.364898	45.527218	129	111	106
15.441312	-3.318956	42.129616	23	16	22
16.977859	-7.833195	36.663948	167	165	168
2.806592	-1.038360	41.365807	76	55	70
-14.377948	-1.800426	36.287712	57	48	55
14.629863	-3.034160	36.201942	38	33	48
-1.024513	0.033370	39.272259	167	163	172
0.801344	0.465787	48.734005	51	47	26
8.570258	-4.443211	42.549061	68	66	81
11.071649	-2.641881	29.103254	31	29	41
4.517675	-4.367767	41.772655	37	32	48
11.637003	4.006813	25.597330	162	161	156
12.372885	4.381550	27.882795	64	66	79
12.260706	-5.800092	44.680965	13	6	16
9.816185	-5.404710	41.681499	119	115	126
-0.593488	-6.311403	49.880726	23	18	31
-0.600145	-0.324644	1.708461	28	21	26
11.466591	-1.906447	32.236946	43	35	47
3.220485	-2.821175	38.596302	26	29	35
-1.697245	-0.020723	47.231487	125	124	139
14.356390	-2.990379	39.201298	40	28	24
-19.064648	-3.376845	35.012508	132	114	109
-16.643978	-2.648311	34.255768	60	47	39
-5.350607	-2.803902	16.574814	185	182	199
13.161444	-3.568912	31.378700	5	1	12
18.205383	-8.799011	40.350185	138	132	142
4.676182	-5.986094	44.609947	63	61	74
0.783780	-9.650249	39.575520	163	161	197
1.645915	-10.727156	43.649685	186	189	231
3.455401	1.912155	35.413151	111	107	95
-6.713436	-3.196017	20.592548	96	91	109
5.927397	-6.809114	47.037998	107	104	119
6.897491	1.896058	29.299887	61	58	64
-10.073884	-0.532872	18.800167	123	118	117
5.849287	2.166293	31.505388	7	8	13
7.753108	2.339742	33.993412	214	211	217
7.042350	2.521648	34.502197	54	54	66
-15.653060	-2.831129	32.220509	204	175	164
8.510947	-4.592255	39.715408	135	133	143
3.579162	-6.342083	42.825714	117	113	126
14.789270	-1.488436	39.238853	35	32	36
-2.845364	-4.297972	44.008209	36	31	49
-0.530626	-4.808569	37.946232	23	18	31
7.382625	-3.589131	38.956059	41	34	43
-18.479069	-2.897534	38.073505	38	28	24
22.339548	-10.610375	49.357674	137	131	141
-3.940634	-2.069337	12.192510	185	182	199
8.137453	-4.214275	40.238873	98	97	112
15.084210	-4.024328	35.979122	6	2	13
2.262497	-1.638253	30.148706	20	19	24
3.774151	-2.677498	43.100109	175	172	176
3.260903	1.780411	33.317417	136	135	138
1.160591	-7.778000	31.591455	187	189	226
9.673103	-4.808792	42.483917	204	200	210
-0.050487	-5.346370	39.563599	165	150	160
-1.442691	0.048448	39.066101	93	93	101
13.891432	-1.523312	33.527794	207	206	214
-11.153330	-1.997187	22.833000	202	176	167
-0.877531	0.026987	33.674297	221	217	226
12.852834	-6.096029	46.845188	13	6	16
0.995679	-12.142281	49.695038	127	123	155
11.250114	-1.840050	31.644905	16	11	26
4.050058	-3.499296	48.313820	35	34	39
10.696336	-5.784823	45.248745	119	115	126
6.455246	-5.172160	49.656284	3	7	14
14.152670	-1.819161	33.813396	212	211	216
14.020233	-2.935976	34.527447	90	79	88
3.872876	1.982679	30.755049	186	180	183
-0.965671	-0.525803	2.765820	28	21	26
5.103776	-10.092544	40.485100	166	167	200
-11.188807	-2.053463	22.827312	203	171	163
2.996161	1.598512	30.253288	203	200	199
8.404674	-4.175223	43.979042	43	41	53
-21.145061	-3.318643	43.472748	60	47	39
-14.211462	-4.313252	28.363712	45	30	31
13.751099	-1.617570	33.133755	208	206	214
3.360871	2.332877	35.340279	35	26	25
5.489684	-4.514834	42.102943	3	4	12
4.871433	1.151482	37.351048	48	28	13
-15.092592	-8.966491	42.094833	62	52	53
-2.456139	-5.615726	46.283497	95	96	119
-0.038781	-4.645168	34.137417	144	129	139
6.653185	-4.139380	41.443329	19	21	32
4.561705	2.344610	36.255928	199	194	196
-1.384764	0.053494	36.244881	63	67	69
-1.619263	-6.012174	49.528809	194	190	212
-0.920534	-5.116592	39.156517	26	24	36
8.250355	-4.146005	37.396900	180	176	183
-1.537078	-4.359647	36.769733	134	135	158
4.140025	-1.917391	30.648800	70	61	55
-17.644819	3.174843	48.923908	59	54	60
10.802498	-3.240933	40.079056	34	32	35
0.038930	-5.782289	42.275257	144	129	139
7.527273	2.947922	41.459145	63	61	71
-3.623809	-1.765618	11.515337	27	23	34
-3.824675	-1.391295	9.511831	16	16	28
3.905326	2.839956	35.204781	7	7	14
-0.544459	0.203210	25.477104	50	50	47
7.250047	-4.846292	46.764210	17	22	32
4.194089	2.093850	35.511414	177	172	171
3.098755	0.528369	24.627529	93	50	21
-7.121575	1.165041	19.816496	44	41	45
4.755949	-5.367741	42.859810	25	22	37
3.553344	1.528660	34.377361	205	198	198
5.952124	-4.958818	44.748875	5	8	15
