0.268512	2.960770	26.405668	172	169	186
0.046232	3.349716	28.103848	152	149	155
2.983353	-0.114195	6.878741	30	18	28
-5.363113	3.510624	31.950178	38	20	28
0.040961	3.232667	28.216082	173	169	178
4.572464	5.508185	19.999960	28	26	34
3.497615	0.739377	13.233555	168	162	169
16.557459	-0.568575	34.155628	66	64	76
0.916483	0.250919	24.940538	86	88	102
4.664081	2.257396	17.001097	60	55	63
5.550965	-0.358914	14.632606	54	51	57
1.376955	5.795611	31.749569	119	108	117
3.432115	-0.194748	7.944565	64	46	53
-5.751107	2.217827	40.708794	18	8	11
6.673596	-5.489413	25.514671	173	174	184
8.315948	-6.634463	30.887276	169	172	181
4.709045	-0.236034	9.761913	84	83	94
8.033956	-0.658708	22.709551	65	60	59
-4.765330	3.307687	30.634220	219	205	203
7.492346	3.620106	27.354622	29	26	36
-2.178079	4.077567	23.171419	164	163	173
-8.938953	0.224560	33.347569	177	173	184
-4.825803	3.792892	30.602684	61	45	39
5.006902	2.398862	18.054176	26	21	34
-2.285611	3.272645	26.058935	50	50	62
8.375863	-0.173055	17.960903	51	50	55
4.264470	2.693963	14.942035	35	32	38
-8.336760	-1.854047	35.129730	42	37	49
8.945523	-1.006703	22.019392	36	35	40
2.613922	4.051753	22.945801	44	43	60
1.089441	4.088468	23.429451	37	26	35
-2.366413	3.971696	23.644535	155	154	169
1.921359	-6.413336	27.052925	173	159	152
-4.534381	5.106818	30.393940	68	65	75
-9.550125	2.509820	33.336185	164	160	171
-2.760653	2.917328	28.680517	72	77	87
-3.467959	3.457671	25.292074	74	73	88
-7.705132	-0.760354	44.289574	119	108	107
4.123965	3.487543	23.480192	131	128	137
1.991293	-6.574430	27.266033	178	160	141
8.617710	-0.044110	18.083633	35	33	43
1.082410	4.389035	26.626505	50	49	54
-8.387859	-0.068867	32.530434	106	96	93
0.717107	0.647115	29.315514	37	35	57
-3.084818	2.884636	29.539120	142	145	156
-11.014780	2.282705	36.128761	179	175	186
6.261518	-0.002217	12.344907	142	141	144
4.058136	3.799521	23.961142	45	43	51
1.007751	3.650775	23.641075	43	41	50
7.687623	4.471794	26.145885	47	44	52
-0.060923	4.935813	28.797901	166	158	161
0.437956	5.130673	27.064863	58	46	57
-7.819872	-0.774040	35.705807	188	175	172
-3.715746	5.059832	28.407856	93	91	106
7.910472	-6.365484	29.434616	179	182	191
7.646562	-6.326049	29.252314	173	174	184
11.442122	-0.015186	22.556904	157	156	160
14.357553	-0.103479	30.203468	22	20	28
0.616162	0.572164	26.033804	36	35	50
1.713026	-5.496146	23.487263	173	159	152
11.120095	-0.356590	22.922749	66	64	76
19.058712	-3.823008	48.210384	135	133	144
4.672200	-0.183716	10.769024	55	37	45
0.214646	2.742051	24.498886	147	145	157
0.042541	3.319448	28.958677	173	169	178
0.224769	2.625174	22.234652	152	148	161
-4.747970	3.732209	30.028528	81	64	52
6.526307	-0.324818	13.582648	142	140	152
-1.136662	3.490697	23.942692	75	67	74
1.134230	4.206888	25.052742	141	139	145
1.133846	4.394751	25.091202	64	52	66
18.800455	-3.196904	46.115601	48	46	54
-7.840947	-0.083183	30.027897	141	130	125
-11.238816	2.348656	36.816669	179	175	186
0.863339	0.258652	25.776886	130	132	146
2.597472	0.396479	25.389521	148	151	160
14.177907	-3.263291	35.732922	114	116	130
-2.794060	2.887459	28.895185	73	76	87
1.195849	4.814237	29.435921	61	60	65
-3.795187	3.947813	39.294834	46	45	51
-7.118480	-1.574776	29.993593	27	22	34
-4.691728	3.248699	30.152025	97	81	80
-5.252026	3.436392	31.286777	41	23	36
3.725106	3.409955	21.826042	38	36	44
-0.856093	4.025249	22.268919	26	29	43
-10.760344	2.629431	35.823334	177	173	184
4.873441	2.270763	17.720854	50	47	56
-21.111591	5.051257	44.712269	63	57	64
4.249118	2.031912	15.351548	60	55	63
-0.534961	2.956331	20.293909	174	168	175
-22.142530	5.643487	47.676247	141	141	141
4.968206	-0.325374	13.091472	13	11	16
-4.806619	3.559155	32.995838	221	208	200
-3.961258	4.476968	26.773310	80	76	87
-1.102546	3.391814	22.447769	73	71	81
11.983138	-1.031870	33.971146	67	60	58
3.570005	-0.148005	7.788117	47	45	53
-2.242301	3.334368	26.041578	50	50	62
3.707024	3.136981	21.089399	115	112	120
2.445898	3.790877	21.502209	59	58	75
5.094212	3.251517	17.929123	34	32	38
-0.872015	4.353593	26.296432	38	31	41
-7.167545	-0.709486	32.727261	203	190	190
0.248675	3.865335	25.020967	63	59	70
-7.058238	-0.676079	31.067617	221	210	223
-3.604835	3.571958	26.256834	70	69	84
2.456567	3.722412	25.132927	40	38	35
4.204779	-0.384860	9.742172	75	65	65
2.873458	0.252498	28.373707	102	105	114
3.663625	5.106003	37.267750	55	50	55
-3.085232	2.889878	29.648642	96	96	101
6.487230	-0.729783	15.997227	32	31	36
1.201667	5.084934	27.982002	153	140	159
8.178144	-0.008271	16.202505	181	180	184
0.048170	3.516215	30.579863	173	169	178
2.611823	-8.640173	35.787739	203	183	162
-10.763186	2.708070	37.046623	195	191	202
0.519650	-0.022837	1.134248	29	28	41
7.932205	-0.062001	16.688368	37	35	43
1.178383	4.583746	26.114033	37	26	35
-22.714375	5.854292	48.911331	141	141	141
-2.421933	3.893187	23.157152	182	181	196
6.881061	3.287527	25.052275	33	30	41
6.238308	-0.267270	14.369987	55	38	45
3.197383	-10.328648	44.410801	180	158	164
0.856183	0.295912	28.071880	32	34	48
1.450118	0.650081	46.802956	123	125	141
1.668531	-5.407938	22.935738	83	71	71
7.683463	-0.382901	15.962315	142	140	152
2.757811	-0.151234	6.386365	64	46	53
-4.276276	3.153277	29.235836	229	212	213
0.603718	0.650763	27.763151	24	23	38
7.127901	-0.624938	20.088779	67	60	58
-8.506769	-1.817878	35.373955	20	16	29
7.494018	-0.630421	18.779493	54	53	58
0.924565	1.779656	20.505892	123	123	135
-7.220352	-0.064516	27.651691	81	70	69
-4.265665	3.020759	27.810139	162	147	147
-0.862349	4.283724	25.919485	62	55	66
4.657354	-0.307272	12.269417	13	11	16
2.904044	-0.263384	6.721166	59	50	54
-5.508810	4.243336	34.275696	81	64	52
-7.743216	-0.728852	33.779140	221	210	223
-6.878107	-0.920656	31.348124	81	74	81
-4.421791	2.884124	26.523796	68	55	66
-3.922341	3.837978	28.382063	70	69	84
-3.460439	3.556788	35.965370	46	44	52
-12.081347	2.537527	39.580860	179	175	186
-3.128539	2.893696	29.840158	138	141	150
4.569007	2.916383	16.072216	34	32	38
5.609028	3.166883	18.977444	47	44	52
-10.546408	2.567730	35.107620	194	190	201
5.329473	-0.231308	11.729480	97	94	109
-0.653358	3.994091	22.802584	148	153	163
10.951000	-4.648455	28.516720	131	128	146
3.235212	5.056474	34.133430	44	43	37
-7.287556	0.012990	29.286539	205	195	194
3.033050	0.252925	29.957930	62	65	74
-3.969799	4.477105	26.665119	120	116	127
-0.802955	3.791179	21.045206	99	96	111
3.453581	-0.345710	8.637646	57	56	61
7.326385	3.314624	25.847605	91	84	100
5.922584	2.824384	21.596939	50	47	56
0.060332	3.239649	28.543798	180	178	186
-4.467287	3.142889	29.174572	219	205	203
-4.365647	2.797830	26.085098	78	63	74
-2.375273	2.210835	22.678604	171	171	179
2.874625	3.899701	28.459093	55	50	55
-0.767503	4.616656	26.362427	167	170	181
-2.550758	4.862062	27.374195	173	173	185
-9.873209	-2.126170	40.850002	20	16	29
11.416495	-0.659540	23.814447	110	110	122
-9.996689	2.481910	34.395622	195	191	202
-9.831095	2.362543	32.825512	161	157	168
2.582343	3.761979	26.388735	53	50	44
3.950098	-0.178902	8.755193	72	69	84
1.936124	-6.297554	26.792366	186	172	166
-11.143453	2.386213	36.928833	177	173	184
-2.640418	4.094186	24.572348	159	158	173
-0.880666	2.792490	19.435053	63	57	64
-5.522082	2.048145	38.671921	78	62	58
16.724274	-0.235335	35.403553	58	57	62
13.706485	-0.183240	28.172075	192	190	200
8.524795	4.813694	28.825794	38	32	43
0.617859	0.676299	31.062998	147	146	161
2.034069	0.300329	19.411043	133	136	145
0.728113	0.270199	23.865812	155	157	173
-7.061617	-0.036765	27.042845	81	70	69
9.233111	-3.923661	24.225195	141	139	156
-1.501739	2.839124	16.062546	44	41	56
-3.676512	3.580378	27.127403	92	91	106
6.656099	4.305019	23.639185	78	77	82
10.408843	0.131916	21.980465	207	206	223
2.773636	0.030310	5.854476	209	208	223
0.920470	0.449616	32.396816	166	168	184
2.422832	-7.643630	32.284195	217	195	177
2.732524	0.489903	26.063475	160	163	172
0.647240	0.855408	32.500870	24	23	38
-4.239473	3.030598	28.314112	232	216	219
-5.000137	3.206262	29.990490	66	35	51
10.990457	-0.154036	23.198647	47	46	51
-9.915497	2.436573	34.054783	195	191	202
18.092607	-0.783122	39.955673	12	10	18
2.085577	-0.098291	4.788251	11	5	15
8.231522	-0.438340	17.227356	157	155	169
10.709561	-4.299623	22.610920	153	152	157
6.582395	-0.602814	18.327875	27	17	19
-1.292360	3.612479	24.830124	33	29	38
-7.121464	-1.525763	29.823957	29	24	36
-4.575950	3.570361	28.903532	123	104	75
0.173684	4.636774	28.900227	43	39	52
0.639946	3.963385	26.592602	177	175	187
5.113934	-0.052158	14.235055	56	55	60
0.159439	2.585053	22.473309	178	174	183
-0.856518	3.434709	32.083858	159	157	169
-5.355543	2.111929	37.899002	49	35	34
-1.242920	4.812536	37.560513	157	149	155
-7.713482	-0.920213	42.485371	171	153	150
-7.829790	-1.996366	41.494259	169	152	128
0.075773	0.240047	25.761127	36	34	46
-2.521958	4.967967	27.843620	188	188	199
4.543693	-0.437794	10.441972	68	59	61
9.459382	-4.017913	24.797150	141	139	156
0.097193	0.213088	32.812019	22	22	34
-6.098190	3.824490	35.807781	85	47	63
1.124667	2.060392	19.467974	185	189	204
4.731630	2.189083	16.972319	21	18	30
1.141480	2.409489	26.233646	178	180	194
-9.667542	2.401061	33.080769	193	189	200
6.542214	-0.565537	16.378599	58	57	62
-2.386258	3.418668	26.848854	85	85	97
-3.689262	2.682661	24.669245	224	211	208
4.122677	3.456672	23.933777	40	36	45
0.552831	0.807797	30.294550	22	22	34
16.396955	-0.826710	34.411102	157	154	169
12.864948	-2.758353	32.180897	153	155	169
2.605458	3.766525	25.795919	11	8	14
-1.424585	3.592008	24.365969	23	21	32
0.858415	0.354793	30.190641	166	168	184
12.675523	-2.046139	31.321068	25	24	30
-6.636279	-1.409424	27.788527	27	23	36
5.815677	4.018292	25.623154	55	47	55
-3.040436	4.510530	26.667507	194	193	208
-2.394889	4.766252	26.555653	181	181	189
-3.756924	2.938890	23.739536	145	132	122
3.925953	2.386938	15.251534	28	28	40
1.733373	-0.168588	4.006681	70	61	62
0.918434	0.407925	36.147038	169	170	189
-4.555689	4.112529	32.636349	78	79	90
-1.494979	3.736294	24.838917	18	18	30
0.491576	2.907604	19.275934	137	134	149
7.315885	-0.311587	20.240612	195	189	196
-5.241119	3.730019	34.539375	239	220	223
2.603940	-0.233752	7.210693	67	59	59
-2.274269	3.253515	25.578663	105	105	117
-6.347504	-1.512120	33.679707	181	165	152
2.181056	-0.005679	6.032948	69	64	69
-3.246137	3.051526	29.813288	188	191	202
0.855591	1.812769	19.164904	176	178	194
1.201166	2.279328	22.430391	181	185	198
9.107249	-1.451489	22.849089	24	23	28
-13.536971	3.194268	45.353657	184	180	191
1.107262	3.535935	29.582016	167	164	181
0.239527	3.209966	29.168545	86	84	96
-3.002155	2.758679	27.471043	172	172	180
3.852514	-0.180867	24.881351	15	18	27
0.021862	-2.346179	24.686729	11	15	19
7.165596	-1.556186	17.716995	168	163	179
-8.069875	-1.837490	42.536747	181	164	154
3.866062	-0.356671	9.738791	31	30	35
4.577540	-0.462961	12.442741	10	10	18
5.989504	-0.975393	14.815752	27	25	33
