12.721453	-7.908044	34.725613	204	209	210
14.021245	-7.930074	39.746552	63	52	66
10.950348	-7.116124	29.391335	174	176	171
-13.625279	-11.055120	34.979092	66	68	64
18.960098	-2.476729	41.615715	39	47	53
16.639954	-1.630763	37.905441	19	28	30
24.589996	-5.151423	44.054081	76	84	84
12.672262	0.138759	34.200008	196	197	204
-3.321486	-5.100211	40.717995	31	38	50
-4.748913	-5.803022	47.065636	42	46	59
25.626356	-12.741235	47.820885	52	53	56
11.686110	-0.357225	31.641935	143	167	171
11.182243	0.040886	32.869507	178	183	193
13.859538	0.267521	36.555386	241	239	247
12.709888	0.921930	30.868668	157	158	168
1.142062	-6.805619	46.042469	27	30	41
-2.393696	-5.929505	39.043388	174	174	182
-11.368475	0.702209	43.555462	156	164	165
-2.843062	-3.401207	43.480576	192	196	209
-3.157127	-7.610576	44.165207	161	161	169
-2.597196	-6.679296	37.428410	162	163	167
-3.558506	-4.356458	35.339359	33	35	49
-2.574412	-3.960005	31.617855	51	58	70
-18.991423	-14.668705	49.371311	65	67	67
4.884784	8.218311	40.288887	155	142	138
22.248466	-12.209144	42.047939	185	190	198
-15.141903	-12.354861	41.609142	50	52	49
13.565776	-8.015380	39.364361	161	166	174
14.314607	-8.969319	41.636810	126	127	131
-14.287555	-11.039766	37.231232	52	54	54
-10.837680	-9.828103	35.791668	170	172	172
12.692466	-8.618493	38.656185	164	166	165
-15.101133	-9.712120	35.849804	138	140	140
11.956120	-7.590602	32.398426	34	36	32
12.273009	-8.013804	34.264736	20	22	22
9.035268	-10.947913	36.865002	209	184	190
4.523330	8.456754	37.336308	34	24	20
-0.870289	7.928274	44.163673	146	140	137
20.592716	-9.944042	45.397934	58	68	62
14.670642	-7.331732	35.780960	170	174	181
17.989779	1.761582	41.987782	138	140	147
12.516163	1.901284	31.467751	199	204	213
13.822771	2.050491	34.026226	151	154	163
-2.427858	-6.152503	38.950748	22	22	30
-0.851655	6.774349	48.164543	105	111	130
13.661995	-0.324754	36.043015	0	16	20
-3.763249	-7.748806	43.928551	163	164	169
12.174026	-13.905994	47.025749	209	183	187
15.178205	1.436159	37.791512	191	191	203
-1.415566	9.865300	38.347111	185	176	181
-12.185660	-12.386682	42.596764	167	154	81
11.730473	-12.922112	43.797005	214	180	186
9.623452	-11.029873	37.405163	204	164	170
25.053171	-5.601820	44.084335	127	132	141
-7.508594	-12.697927	43.065708	162	157	66
10.582653	-4.722649	33.726727	101	104	113
-15.564864	-10.238494	37.786552	184	185	185
13.284414	2.476356	31.852047	94	97	106
13.324008	2.314247	31.763950	48	53	61
26.177050	-13.067610	48.803185	39	41	44
11.489137	-7.441037	30.833351	108	110	105
11.161245	-7.287756	31.146791	20	22	22
12.820136	-8.157265	34.803894	33	35	34
-2.607930	-3.128690	39.546375	183	187	200
14.995075	2.893301	35.092747	176	179	188
12.399052	-6.714424	30.571898	167	168	171
12.412449	1.890202	31.225863	170	175	184
13.890639	2.068123	34.275490	172	177	185
11.664394	-6.984053	33.787312	169	170	179
-14.784629	-11.459451	38.515114	67	69	68
-13.803692	-11.274719	37.880806	64	66	63
-14.117175	-12.195783	41.033497	62	64	61
-17.801577	-11.393215	42.500977	167	169	169
-2.951472	-7.259569	40.958698	176	177	181
26.969801	-5.706189	48.278854	84	92	93
-8.659836	0.393500	33.468220	156	164	165
12.727575	-1.943371	35.868088	149	154	168
11.604863	0.066539	30.805513	219	219	225
17.171345	-1.850863	38.421150	180	185	192
16.047319	-1.569663	36.569820	19	28	30
11.278319	0.059786	33.343674	109	114	120
4.836047	8.269798	40.224251	151	136	132
-2.232709	-5.473469	35.845570	183	183	193
13.008740	-0.396004	35.233135	109	149	152
4.502543	8.363608	37.102936	84	73	67
-3.054354	-4.696936	37.372910	71	75	88
-3.643769	-4.475763	37.835587	161	160	175
3.110082	-12.802778	44.619038	223	188	193
12.522284	0.147600	33.854256	172	176	182
-13.955321	-9.564763	34.455055	128	123	122
-0.990883	8.507083	47.385708	47	40	40
1.083792	-0.486899	3.494964	178	181	192
10.572317	-1.908496	25.895882	38	91	84
11.383366	-2.321905	34.644821	131	141	151
15.168554	-7.580260	36.999317	183	186	193
14.779968	1.378018	35.499588	15	17	26
12.562957	-7.809598	34.279629	204	209	210
14.278141	-9.694255	43.460285	170	172	169
13.023561	-8.226013	37.941849	91	92	95
-6.939658	-11.685841	39.601559	175	168	73
16.910332	1.627555	39.641232	129	129	137
25.999279	-5.651666	47.796410	25	33	39
-7.061230	-0.755630	42.616623	111	116	126
20.141430	-10.739413	47.988003	170	172	172
-9.524652	-9.764979	33.395214	124	114	69
18.802639	-3.423111	45.871067	141	147	144
22.163343	-5.598120	49.485546	110	116	119
11.342381	9.896862	40.577091	150	159	168
9.589400	-2.206739	32.133644	98	102	111
-6.618305	-0.621143	39.845333	127	134	146
11.681973	10.063523	41.390324	158	166	175
2.609183	-11.513777	39.752232	195	160	165
10.415335	0.069222	30.976624	71	76	84
12.330758	-7.015532	35.276802	38	38	51
-2.537616	-5.994508	39.636471	184	184	194
22.744099	-12.466447	43.060814	185	190	195
5.165663	9.599730	42.499146	100	89	82
12.656173	0.153093	33.666584	174	174	182
4.964232	8.592515	41.861263	146	132	127
13.341462	-7.988161	38.638954	116	117	125
17.900852	-1.707443	40.735588	51	59	63
23.363676	-5.114370	43.011539	33	39	46
12.079967	0.823716	29.551764	156	156	167
16.778368	-1.819255	37.591267	178	183	189
13.702894	1.285697	34.811180	197	200	211
-12.742768	-11.488896	41.842728	179	181	181
20.472311	-10.399065	48.153267	47	51	55
-2.762447	-6.749176	37.970890	176	177	181
-17.559093	-11.242302	41.842953	167	169	169
12.627731	-2.058874	35.796597	137	146	159
-2.944405	-3.541001	43.967163	181	185	200
12.539813	-7.999959	34.184845	46	48	50
12.163884	-7.951407	33.971706	44	49	48
15.696090	-2.846920	38.359554	149	156	156
12.569068	1.926404	31.728977	132	137	146
13.848023	2.290230	32.606392	104	108	116
13.859485	2.651513	32.575531	189	192	201
15.112165	2.830702	36.219551	80	84	92
13.799344	-0.401332	37.219837	60	114	116
-1.149185	8.819532	37.116425	172	156	150
5.641396	4.207994	43.809658	148	151	169
12.543775	-5.636130	40.361485	103	106	115
12.305064	0.138748	33.231533	172	176	182
14.848306	-7.443339	36.396873	178	182	189
-12.762153	0.812577	48.839108	95	100	106
-4.004322	-4.949536	41.657291	158	157	172
17.583187	-9.434907	41.845573	135	137	137
-16.513313	-11.318027	40.776550	135	130	129
-10.691936	-10.949938	37.414062	129	117	70
17.058514	1.587543	40.008495	135	137	144
-0.878362	7.627400	42.486034	140	135	133
-2.243140	-2.949736	28.000830	98	96	108
-1.492358	10.703602	42.916710	95	78	71
10.910495	-8.261002	49.751968	116	124	143
-3.155384	-4.851270	38.600498	71	75	88
12.696128	1.902213	31.520197	154	159	168
-11.744325	-10.582976	38.519371	179	181	181
13.673167	2.631134	32.252861	166	169	178
1.965229	-1.050568	43.806732	99	113	125
11.868465	-7.267036	34.395683	145	146	151
12.456767	0.769998	30.676142	144	144	156
16.855259	-3.033608	41.205727	145	150	149
12.724205	1.943274	32.092545	147	152	163
9.957883	-2.213135	33.224758	141	146	156
13.526479	2.153298	31.913336	62	63	72
1.143180	-7.260547	48.003616	63	66	73
11.490034	-2.305833	35.010895	134	142	151
13.217817	2.381800	31.974556	81	86	94
-3.307705	-8.025902	45.600536	103	104	107
10.966144	-7.204985	30.448708	37	41	41
5.015911	3.648634	39.447697	146	150	165
11.410205	0.078446	33.953499	59	64	72
13.338110	0.938053	37.074116	16	20	30
18.445414	-9.834634	43.606667	137	139	139
13.247371	-9.072320	40.800220	170	172	169
-5.983808	-0.602193	35.869667	138	145	159
5.157202	9.559961	42.330452	100	89	82
9.545201	-4.332903	30.813353	125	128	137
12.624889	-1.695872	34.791603	45	55	63
15.786787	1.514913	38.274525	71	76	84
20.688177	-9.043015	45.842136	62	71	70
10.235536	1.262114	31.917072	9	14	25
-2.788332	-3.256287	40.424850	174	178	191
14.711114	0.191690	39.518246	152	156	162
-11.513385	0.653784	44.291504	43	48	55
12.614286	-2.559344	43.220375	51	55	60
10.142069	-7.854559	46.463486	108	115	133
0.812069	-5.212429	33.373375	63	66	73
15.155035	3.026694	35.442581	184	187	196
13.910783	2.218660	34.584042	176	181	190
13.262356	1.162373	33.690605	202	205	216
1.882285	-1.000380	41.665531	169	185	196
10.855381	-1.794298	30.556223	158	163	177
12.148291	-8.361196	37.212818	139	141	138
10.491341	-2.124751	32.065613	156	164	173
-2.527387	-3.125922	37.216805	181	185	200
-2.938809	-6.781069	44.617001	174	177	188
11.658783	1.853236	27.496977	105	110	118
10.725354	-6.540169	30.937901	172	173	179
16.158197	-8.415535	39.747139	166	167	172
12.431877	2.192947	30.021736	84	88	96
0.506883	1.293337	42.471073	20	22	36
11.557902	0.811713	32.119766	11	15	25
10.636662	1.271244	33.010479	15	21	33
14.135915	1.322919	34.086498	21	24	33
-9.667888	6.207597	32.395458	24	17	21
12.300915	0.157419	32.657860	219	219	225
13.580574	-1.728331	37.252426	43	53	61
13.798760	-7.646480	39.212971	46	42	57
-2.340692	-5.759737	32.487217	135	136	141
-2.789648	-3.749522	35.602097	87	86	101
11.183581	-2.266313	38.365513	54	58	63
10.428857	-3.122234	34.430283	127	123	130
16.536144	-7.724155	43.604752	140	149	155
14.012102	-8.677369	40.777946	37	38	43
18.620771	-9.315516	43.855251	41	44	51
9.748472	7.405383	45.180946	127	182	68
21.009539	-5.357005	48.268379	170	176	179
-3.195772	-3.938297	45.883575	193	192	209
20.809832	-9.011810	45.728024	50	56	57
15.394866	-2.067793	34.101925	92	99	103
16.218483	-2.019152	43.465557	165	175	185
18.003021	3.706146	42.354504	138	141	150
12.682281	2.213229	30.865866	103	108	116
9.967547	1.150698	31.361383	14	12	26
11.586577	0.920181	29.673782	150	153	164
10.527553	0.754501	29.226679	6	11	21
0.989543	-6.581221	41.907143	65	68	76
15.173519	-1.127213	35.000614	150	158	165
12.989007	0.140261	34.813187	196	197	204
11.471943	-2.237192	32.359100	109	118	125
11.512081	2.001219	27.988871	81	86	94
-3.086821	-3.804994	43.376076	193	192	209
11.894075	-5.414352	39.544193	129	132	141
11.526258	2.378779	27.137423	162	165	174
11.167564	-0.281430	33.775192	27	32	38
-2.822819	-5.904678	39.682571	175	179	192
12.751509	1.001084	35.311207	13	18	28
15.030116	-7.102059	39.619442	142	150	157
14.874180	1.606687	47.415123	50	59	67
-5.540044	-0.473096	32.478855	143	152	163
9.826073	4.665864	37.126675	124	131	146
10.647779	3.369851	32.857643	52	57	59
6.021130	-2.000815	19.422682	9	12	21
-2.807715	-3.752031	39.474922	191	193	207
12.561782	0.709906	31.701525	191	191	202
11.485146	0.696187	31.278059	13	18	28
18.368500	1.946148	44.548042	36	40	48
-2.605360	-5.362927	36.643879	171	178	192
18.311560	2.965950	45.196739	154	159	168
12.705435	-2.594815	39.159996	94	99	109
12.543722	-0.211237	31.099487	40	31	42
10.808071	-4.987660	35.759594	102	105	114
10.313261	0.229051	30.506227	195	200	206
11.591514	-3.850476	37.426392	126	131	139
-10.649520	-1.747737	26.430407	99	107	116
-18.541349	0.351801	45.333038	118	124	132
10.042393	-0.645993	29.720123	11	21	29
0.727345	1.002586	45.291847	15	20	30
