0.813309	-2.357472	11.054837	199	192	197
-2.956398	-1.244867	24.050903	181	158	57
0.587188	-1.601519	7.877784	189	186	185
-4.994284	3.627948	16.099148	140	139	144
-24.412001	-5.584856	45.883804	73	91	73
2.505075	-4.466783	19.786154	209	204	201
-4.340858	-9.991172	37.829498	184	179	180
-6.059916	2.473964	16.633814	198	196	204
-1.341930	1.962903	17.886909	96	96	93
-9.690286	-1.250258	28.224535	33	11	0
-20.974768	-5.381774	43.813171	41	37	28
-1.487732	-2.193061	22.610306	175	174	179
3.651975	-5.511898	24.838726	196	192	198
1.985811	-13.384616	42.140278	33	26	26
2.386149	-12.773702	40.220325	63	56	56
22.380308	-9.865838	39.363689	190	191	196
-21.514267	-5.816825	47.369942	41	28	15
-2.267092	-2.432624	25.143137	186	176	177
-2.498197	0.603957	20.004868	185	177	184
2.154271	-3.692478	18.497688	189	181	182
-1.973868	-1.943726	21.333725	180	173	176
0.832049	-10.688219	34.806225	40	35	40
-1.936780	-1.464738	21.169346	166	161	160
14.628069	-8.551973	32.973164	22	16	11
-0.125250	-0.680199	29.542490	27	16	11
-1.497593	-9.923325	38.427902	145	144	149
-2.012036	-10.563709	40.904369	158	155	164
0.802367	4.922003	40.998142	189	176	172
1.041942	1.626554	26.703516	187	178	174
-1.213368	-1.311751	14.352756	210	189	189
-3.761701	-12.780273	48.336357	43	42	50
-1.521375	-10.391745	39.011959	143	142	147
-1.317451	1.882416	18.601315	197	188	187
-2.035806	-11.020591	41.369167	159	157	165
-3.097091	-12.205583	45.812000	18	16	24
-0.905127	-3.039836	11.552702	76	73	90
0.687676	4.212948	39.087418	205	196	192
0.858654	-5.527268	19.275106	169	162	168
0.322986	3.089651	29.843632	44	33	24
15.510853	0.444581	36.655167	190	179	178
-4.558330	-1.775982	24.772049	180	168	156
-1.821315	-7.915085	29.528324	179	177	185
17.342134	-0.405640	32.492912	178	174	168
1.160807	2.645802	34.315472	191	186	188
16.461279	3.444444	41.803028	183	182	186
1.342621	3.042763	36.489326	191	184	184
-2.242587	-8.425827	31.193768	182	181	190
-3.182209	-9.383049	34.471664	201	200	210
-4.271926	-10.391910	37.889606	188	188	188
-3.228105	-8.627718	31.595837	175	172	180
1.692178	-10.305004	37.513603	170	166	171
-5.482638	2.438531	21.416958	188	189	197
-11.623685	-3.009953	33.425858	156	153	157
-2.919816	0.617907	22.223701	52	43	35
2.487934	-4.357728	19.653267	206	201	198
-5.936109	3.076208	19.087519	14	8	5
-10.420824	-1.920854	31.461660	190	167	128
-11.424583	0.301430	28.227575	46	16	5
13.319921	-0.141632	31.013006	183	178	180
-5.443424	-1.767685	22.566763	32	23	14
16.170538	6.792763	47.016224	149	142	145
20.913761	-0.666325	39.020634	67	56	53
-2.356721	-1.033120	20.980003	183	151	65
-17.235830	-4.484959	49.547562	140	138	139
-2.392831	-1.114465	20.931128	171	145	106
-0.140555	-0.643820	27.456341	46	39	37
-21.826229	-5.957086	47.917797	42	28	14
0.906676	-6.052735	19.307720	74	67	67
-4.935785	2.198932	19.290108	202	206	207
1.030937	1.616602	26.552500	158	149	145
2.629524	-4.013898	18.024422	177	174	180
15.773105	3.276396	40.319824	192	189	195
-9.375772	-1.258116	27.235529	22	9	0
-10.751031	0.434168	24.775087	253	249	236
0.486552	3.353112	31.227921	185	172	165
0.591224	4.024438	32.960869	194	177	178
-6.386518	2.604854	17.514675	203	201	209
1.138496	2.565646	33.246109	191	186	188
1.052928	2.332784	28.165173	191	186	188
0.331356	3.151612	30.754717	36	23	10
-2.927469	-11.646852	43.488480	12	10	18
-20.157463	-5.196777	42.024445	21	17	14
-1.345367	-6.042490	22.524611	142	140	148
-3.381055	-12.236318	45.274586	155	154	164
-1.760563	-1.855098	20.845963	118	85	87
-1.065385	-1.543923	16.546698	206	196	197
1.612835	-2.928703	13.031740	202	197	195
1.873723	-3.203030	16.030128	189	181	182
1.873372	-5.191274	25.372238	174	168	170
14.608079	0.400790	34.661167	121	111	111
1.337176	2.166812	44.793911	192	183	179
-12.246284	0.018538	28.154369	57	44	31
1.742532	2.360758	48.581116	192	181	178
0.986158	-6.482548	22.516512	176	168	173
-1.121954	-7.294426	28.171087	141	139	147
-8.799609	-1.168623	27.054152	53	24	0
-14.061653	-3.668711	40.238171	154	151	155
4.083121	-5.522758	25.750166	102	90	90
22.131163	-0.707873	41.251308	114	104	100
-2.242696	0.516263	18.072399	208	201	204
13.191758	-0.141708	30.804379	183	178	180
0.740544	-11.036714	36.246826	26	25	30
12.342747	-8.807015	29.306322	51	42	40
15.081217	-0.344591	28.505924	196	189	187
-0.283270	3.283447	29.413692	81	54	16
-7.529715	-1.019698	23.007893	61	33	3
-4.063517	-10.048001	34.796585	161	153	158
-20.715347	-5.967607	46.233238	102	138	139
-5.915805	3.081004	19.071268	14	8	5
1.992266	3.661775	39.470196	108	98	97
-8.836540	-1.656345	26.789886	171	152	123
-6.436089	-2.098649	26.666634	35	30	20
-2.379960	-1.004421	19.342258	196	168	39
0.336372	2.562543	26.643606	23	8	0
1.000208	-6.655035	21.226154	74	67	67
-1.266445	-1.534289	16.266010	209	191	188
1.883667	-3.209624	14.093450	51	47	49
2.265868	-3.463302	15.591779	207	203	209
1.391059	1.913408	39.463184	193	184	180
1.110762	1.518487	44.013409	197	190	188
4.074028	-6.797143	32.694309	187	178	178
0.473173	-1.286197	6.293715	206	200	199
1.583823	2.735474	45.026215	189	183	178
4.027909	-6.851168	33.908215	88	78	79
-8.225516	0.316027	19.320576	251	247	244
14.776140	0.486123	35.237801	111	99	100
-23.099752	0.679928	48.522312	124	106	93
-1.790156	-1.830166	19.840599	198	186	186
0.471865	-3.066292	10.699606	135	129	134
-1.199630	-1.660164	17.938972	117	110	113
1.165741	2.665532	32.757637	201	196	198
-10.971206	-1.491647	33.378117	56	28	0
0.557839	3.963646	36.739429	185	172	165
-20.648043	-5.308454	42.842445	19	23	19
-21.541105	-5.760880	46.792049	62	45	26
-21.929510	-5.932500	48.192829	42	28	14
-5.630162	-13.016358	48.479893	188	183	185
0.944997	-12.665799	42.488792	106	102	111
0.264520	-5.480914	17.520092	101	94	94
-4.985680	2.210876	19.396133	194	190	195
-5.984383	3.126812	19.312723	14	8	5
-6.343647	2.596430	17.411821	203	201	209
-6.279967	2.305878	17.111712	185	183	193
6.744596	-9.187037	42.956093	68	56	56
0.480348	-6.847623	22.450788	125	122	126
-1.314330	1.914212	17.819225	66	65	68
13.031716	2.646620	33.464172	186	183	191
16.646465	-0.400675	31.448528	198	192	187
18.845707	-0.624394	35.111355	143	132	129
-1.245647	1.813102	18.212086	168	152	138
-12.485960	-3.297716	35.725407	134	131	135
0.132253	-1.055139	27.378639	45	41	43
15.342819	6.446612	45.065384	165	158	161
-19.511690	-5.073911	40.468506	31	43	46
0.353232	2.325576	19.028353	185	167	163
-4.096528	-9.752811	35.865337	171	171	171
-4.834242	2.159276	18.846630	203	205	207
-15.234929	-4.199007	33.434528	69	58	40
14.950126	-0.222323	35.056499	188	183	185
3.075657	-4.695443	20.872202	205	201	207
1.355283	-2.471311	11.104235	210	204	204
1.726442	-2.944186	13.016680	58	55	54
15.212477	0.535289	36.266891	184	172	171
-10.560373	0.411901	24.287169	251	247	223
3.258854	-4.531313	21.120020	68	56	56
-1.906935	-2.012831	21.266857	197	187	186
-9.650985	-1.356889	27.748917	22	23	11
1.077411	2.478819	30.477280	201	196	198
1.246318	1.506470	46.220135	196	186	187
11.868248	2.771005	39.111012	60	54	68
1.236804	1.989286	40.519276	193	184	180
1.109546	1.812943	31.392706	189	183	178
18.632635	-0.458372	35.259155	201	191	190
13.185750	4.819843	43.939087	163	154	161
-0.324808	2.787141	26.127491	90	56	15
16.868435	0.741455	41.761505	110	99	92
-0.204647	-1.806789	32.998428	173	169	163
0.482617	3.535961	36.721172	50	36	22
15.857629	3.192932	40.877129	176	172	184
-0.783215	-3.862223	14.556272	120	118	126
1.314404	-2.512753	11.204003	210	201	202
-2.767896	-2.837209	30.562864	204	192	192
-5.698282	2.206054	15.729527	212	208	217
1.298638	1.554120	47.577644	196	186	187
0.454368	2.995821	28.052023	192	178	174
1.136023	1.812754	35.107113	191	182	178
2.957531	-4.885894	21.920498	30	29	29
13.240419	0.574700	31.646009	198	187	182
0.236782	2.934184	27.506681	191	172	161
14.336051	6.157568	47.916382	21	17	21
-10.790540	-1.589758	32.529186	58	29	7
0.324711	-0.898158	4.338723	212	202	206
13.164556	-0.196562	30.868502	182	176	179
-13.818154	-1.811755	39.083740	20	20	6
12.422978	0.429518	30.945984	87	76	69
-9.346495	1.618343	28.144510	124	93	17
-5.149199	2.308516	19.864197	195	198	196
-17.058729	-4.785007	37.462467	67	107	95
-11.280825	-1.569932	29.474384	161	149	80
-1.193322	1.967568	19.284389	218	206	208
-0.294768	2.835575	26.637131	90	56	15
-10.480462	0.432643	24.126265	251	246	236
-0.055702	-0.376829	22.547264	139	116	87
1.865426	6.866989	43.318363	141	134	134
-5.656596	2.212623	15.651654	217	213	222
-2.283902	-2.634828	48.047169	140	126	101
-0.070295	-2.738282	36.299881	154	143	138
11.764819	0.596266	27.352409	29	28	29
-9.987256	-1.519403	29.971157	52	32	9
10.410947	0.300812	26.052952	87	76	69
-0.121515	-0.865734	15.584850	24	22	18
0.301271	4.224781	37.463017	195	176	168
-1.038234	1.645200	16.123810	205	199	206
-7.151019	0.727454	16.649347	246	235	236
0.957481	1.483761	28.722158	191	182	178
-9.781962	1.645834	29.446226	117	80	1
19.143387	-0.203460	47.258797	83	72	68
10.501363	2.529809	34.735664	97	91	104
1.360773	-2.220257	10.891107	228	221	221
-11.141149	-1.450188	31.522947	22	19	4
-0.534102	-2.578541	31.755850	140	135	132
0.969124	0.925102	35.641125	197	187	186
0.846468	1.401008	26.542637	189	183	178
0.358277	0.623220	11.882072	27	18	14
1.510087	-2.437089	12.064294	214	207	207
17.888445	0.137200	40.015347	11	16	15
-0.196643	-3.200078	42.562408	155	144	139
17.999985	0.897788	41.389797	26	27	27
-2.149119	-2.386527	25.358147	170	157	154
0.073641	-0.570563	23.220827	187	174	171
-0.503224	-2.662900	46.799664	151	141	140
-9.044568	-2.601436	26.046444	127	121	124
-0.745378	-0.889654	17.593977	186	159	73
-1.661247	-3.551430	25.529331	115	110	112
-16.941193	-2.382080	46.326004	32	27	24
-4.750932	-2.200386	49.203163	23	21	22
-16.049938	-5.018489	43.048134	49	49	49
0.167365	1.237500	24.218214	204	166	129
