-8.370785	-6.143119	25.886276	148	143	150
-8.666828	-2.840565	18.944267	151	148	154
13.551130	-0.289189	39.584164	145	143	144
-7.161440	-5.235391	25.919409	170	167	171
7.093721	-6.104993	30.975473	75	67	73
5.564943	-9.770318	31.595419	48	44	77
-12.349927	-4.525930	22.522366	204	202	208
-11.769759	-4.944099	25.008938	220	221	226
-11.710101	-3.417931	21.928406	26	26	34
-6.326504	2.228998	20.219311	113	108	107
-7.090520	-4.823203	25.666122	173	170	174
15.165959	-10.165557	49.109428	191	191	200
7.675252	-6.702979	32.357304	218	211	209
7.753457	-10.930140	36.646702	34	26	32
-4.119853	-1.502856	9.524773	7	4	11
5.562800	-4.823015	22.856562	22	22	17
5.442417	-7.747421	26.293856	58	48	50
-8.231434	6.469341	24.626354	59	53	56
-12.807739	2.810155	23.518375	170	164	152
4.443764	8.967247	35.413303	72	64	83
-9.879532	-3.261473	21.951811	143	141	149
-12.322172	-4.080624	23.342215	146	145	153
-10.069864	-3.422759	23.215601	145	146	154
-11.732895	-3.947011	22.845587	183	182	190
-19.934536	0.999292	35.237602	30	28	26
-9.321081	-3.384966	21.489403	11	9	16
-10.178600	-3.638420	21.443300	178	176	184
-10.449048	-3.787335	22.597569	173	169	178
-6.025899	0.924986	23.432421	137	135	136
7.619432	-7.106343	32.115635	33	32	35
-11.271324	-3.442686	22.393772	181	187	186
-9.885377	-3.696701	22.061884	157	155	163
-3.161659	-1.193554	7.153261	23	24	32
-10.754082	-3.489364	21.989866	26	25	34
-9.644751	-3.612775	21.823853	17	15	23
-10.015603	-3.838862	23.200174	153	151	159
-9.478549	-3.733133	22.707109	117	115	123
-5.757267	1.168929	22.002937	18	15	19
-6.605379	2.648976	20.205477	174	160	155
-12.982787	-5.459820	23.945709	56	49	52
-5.283546	1.131971	21.355478	125	121	122
-9.491061	-3.290229	22.628288	134	133	138
-7.491055	-6.759746	26.903166	25	22	26
11.260647	-9.352037	40.778049	181	179	183
-7.898771	-5.821445	25.069717	26	19	29
-6.611223	-2.320930	14.129474	23	23	30
-6.113404	3.716119	19.309807	158	160	157
-6.731432	3.002577	21.075121	118	111	113
-5.482861	1.266706	22.485336	17	13	13
-8.714388	4.097251	25.442778	143	141	142
-6.411929	-6.368625	25.064438	27	21	28
-11.161010	-3.475650	21.476328	12	11	24
-5.891043	1.348901	23.450788	48	39	39
-12.677934	-5.052578	23.329550	152	147	152
6.561731	-7.918253	30.498322	63	57	55
0.486323	-0.406376	2.096783	159	157	169
-12.788026	-4.627267	22.891665	54	46	54
-5.927174	-5.889647	23.171017	105	97	105
-11.989985	-3.912704	23.783274	8	9	17
-11.684293	-3.689486	22.412746	20	19	31
-11.367166	-3.708448	23.226503	26	25	34
-9.151948	-3.321593	21.139315	11	9	16
-11.871095	-3.496854	22.558353	168	172	180
-12.392744	-3.634043	23.205164	79	82	91
-5.520778	3.362878	17.450830	162	163	163
-8.229730	-2.705155	18.036026	165	164	169
-10.291701	-3.712667	22.257280	114	110	119
-6.791747	-5.006727	24.618008	163	157	162
-8.032033	3.902579	23.938864	168	163	163
-2.633182	-4.184786	25.305500	40	39	44
6.415150	-5.941201	27.060581	33	32	35
-9.900838	-3.531112	20.858120	179	177	186
-11.432362	-3.847465	22.242483	96	95	103
-6.968049	-6.383032	25.251423	38	32	37
-6.156779	1.228209	23.481846	49	46	50
-20.731627	-8.522449	43.004738	226	227	231
-9.161953	-3.477612	21.162477	149	147	155
-11.877536	-4.322231	21.661030	184	179	186
-7.460301	-5.477018	23.671553	24	18	28
-5.655443	1.306429	23.205711	17	13	13
9.160093	-7.996784	37.726978	58	56	52
-6.396937	1.488719	24.294502	154	150	151
-9.470023	-3.718949	22.644770	131	129	137
6.275287	-5.290921	23.110004	144	143	146
-11.569618	-3.390452	21.041170	118	126	131
-11.929939	-3.776479	21.659855	107	108	111
18.474241	-2.528283	46.883202	20	13	17
13.748439	-9.263984	44.930820	123	123	131
-6.080883	1.891790	22.035637	47	44	42
-6.809439	2.281492	21.766167	186	180	175
-13.555430	2.959557	24.820234	179	171	160
-8.605013	-3.034990	20.575743	138	140	145
-10.136857	-3.432649	23.282188	144	143	151
-6.531185	2.914869	20.442280	118	111	113
11.235612	-9.006034	39.907768	67	64	70
-10.473524	-3.943346	23.655455	16	14	22
-10.482459	-4.303953	21.616875	113	113	120
-12.684704	-5.050624	23.341642	152	147	152
-9.087565	-3.414978	20.279947	96	94	102
14.087339	-9.084029	45.675308	77	77	85
5.408126	-7.731271	26.256632	108	98	99
7.983178	-9.698281	37.151424	95	89	86
-13.105455	-9.661536	39.483387	35	29	33
-9.291520	-3.374133	21.509838	11	9	16
-10.794926	-3.669078	22.954973	14	12	20
-6.738286	-2.389465	14.151119	188	186	196
-13.807246	-4.301933	27.750521	157	159	164
-17.010382	-5.040418	32.321529	154	157	166
-10.281105	-3.390699	21.198151	33	33	42
-7.783747	-2.526608	15.905880	180	185	189
-11.428048	-3.811012	22.213863	179	179	187
-9.960622	-3.526280	20.918791	169	167	177
-11.071599	-3.566720	21.897034	14	14	22
-8.302517	3.959019	24.584597	177	172	174
-6.640120	2.672332	20.217531	178	162	158
-9.413427	-3.582542	21.644640	78	76	84
-9.752052	-3.637992	21.976618	44	42	50
-10.209772	-3.662162	22.154358	173	169	178
-6.868262	-6.294755	24.878756	38	32	37
-6.292713	-6.214381	24.577662	17	14	20
-3.120693	-4.646427	28.211706	41	38	44
4.974146	-6.117922	23.295025	77	69	67
-6.126398	1.933260	22.193033	70	67	65
-6.370364	3.916583	19.918661	59	61	61
-4.769358	-7.790732	46.696342	202	201	206
-6.233342	1.456853	23.648842	89	85	85
-9.735615	-3.252284	21.938850	23	20	27
-9.929296	-3.499337	23.630907	145	144	149
-5.571502	1.261173	22.655489	48	41	41
-6.533271	-4.423068	23.684038	130	127	131
11.707021	-4.086231	33.579247	30	29	30
-9.861358	-3.218409	21.557474	130	126	135
-7.138592	-2.997486	15.085287	113	113	120
8.346258	-7.071586	31.017776	203	197	202
5.864710	-5.212717	25.096136	187	178	177
-7.915759	-2.614581	17.346107	165	164	169
6.078352	4.140943	17.795328	108	110	119
5.974182	-5.535584	25.245234	33	32	35
-11.169647	-8.238960	33.652847	23	18	20
-6.858253	-5.049663	22.243279	160	156	165
9.214196	-4.337053	49.543488	122	124	119
3.743865	-3.180339	16.222486	40	33	38
-8.765748	-6.479304	27.132053	82	76	83
-8.463924	-6.217201	26.685808	24	18	28
10.983083	-8.814046	39.017410	102	99	105
-9.948981	-3.848181	23.678272	139	137	145
2.759922	-3.390795	12.853864	16	9	14
-15.215347	-4.494174	28.912142	154	154	163
5.354689	-4.589959	23.430101	44	36	42
-6.207500	3.825709	19.426228	101	101	101
-11.867342	-5.003364	24.983955	188	189	194
-9.600210	-3.410313	20.161055	127	125	133
-7.724488	-7.546586	29.777218	42	36	43
-6.777181	-6.109624	24.458000	111	108	112
-8.809550	4.152747	26.090151	184	180	181
-9.342512	-6.836255	27.712471	37	32	34
-7.047870	2.750684	20.905779	115	93	84
-6.670249	-4.970167	24.072550	170	163	168
-9.800674	-3.521868	21.266090	114	110	119
-5.726105	-6.109582	42.180504	80	73	76
-8.862265	-3.131417	21.089962	130	134	139
-6.915427	2.187405	25.062197	118	114	113
-10.285404	-3.546864	23.393690	151	147	156
-10.426552	-3.270691	20.953295	180	185	189
7.630209	-6.528924	28.534580	205	199	204
-10.474584	-3.448214	21.597717	16	14	23
-5.730203	1.334170	21.728678	28	26	27
-6.570433	-4.403562	23.717997	52	49	53
10.297668	-7.035553	34.422211	159	162	167
-4.875507	1.074869	19.894823	125	121	122
-10.662471	-4.429599	22.118177	145	146	152
-10.607776	1.726277	25.758673	21	16	18
-9.220168	-8.353605	33.308029	26	22	29
-9.563494	-3.351274	20.439631	36	34	42
-10.706506	-3.761043	22.375326	169	167	177
-6.364577	-2.251848	13.366663	188	186	196
-11.579060	-4.841762	24.305765	178	179	184
8.311372	-0.743501	35.747505	18	16	17
16.508320	-5.702246	46.484344	28	25	28
-9.529339	-3.408115	22.584454	127	130	137
-9.886201	-3.414040	22.561750	147	143	152
-7.466147	-5.511962	24.167616	162	158	167
5.303910	-4.744646	22.047941	41	41	41
-9.244893	-3.593750	21.948189	120	118	126
-9.908864	-3.703626	22.613390	119	117	125
-8.318646	-8.104196	32.054668	17	14	20
-6.130591	0.784361	25.369539	105	103	104
8.970349	-6.401153	30.338617	40	36	47
-6.938381	-5.187809	25.042812	175	169	174
-9.169614	-3.342494	20.142267	131	129	137
-8.545480	1.339915	20.909342	24	17	20
19.126093	-2.563474	48.189915	24	17	21
-6.952053	2.824684	20.670633	179	168	168
-5.074255	1.155934	20.536173	26	20	20
-8.719106	-3.644945	18.302357	145	146	152
-7.428412	-5.512631	22.373175	39	34	36
-6.855743	-4.499506	24.746935	141	138	142
-6.335783	-4.586390	19.826067	15	14	22
-7.184305	2.945459	21.262308	172	165	165
-8.043706	-6.039760	28.504887	184	176	182
-8.592088	1.617769	21.227356	91	86	88
-0.088603	-5.414947	35.369564	218	213	215
-5.162729	-8.003693	49.737961	114	113	118
-5.917840	1.553666	23.079161	165	158	156
-11.551304	-4.798524	24.289999	224	225	230
-5.628548	1.059191	22.411837	19	18	18
-6.740380	-2.485270	14.806986	12	11	18
-6.043826	0.760363	24.979952	105	103	104
-5.961666	0.966276	22.821030	57	55	56
13.729012	-4.906577	38.760445	31	28	34
10.366126	-0.948020	32.595345	25	26	29
11.457026	-4.308582	35.389286	31	31	39
11.951515	-0.663438	35.327213	145	140	139
-6.489697	2.652882	19.328056	176	166	166
-4.278918	-6.608823	44.110672	61	57	68
-6.371074	-7.487647	49.956169	97	92	91
-4.252017	-5.849451	37.252911	23	22	27
-6.354237	0.805713	26.277790	137	135	136
-5.622306	1.932834	20.108320	74	68	70
-7.421099	1.856049	28.385595	164	157	155
-0.141867	-4.072103	26.138437	215	213	214
-9.095700	1.378806	22.222906	17	12	12
-9.096805	-3.174476	22.277626	9	10	13
-5.605563	0.983311	21.383547	36	34	35
-7.426179	1.416883	18.368450	115	110	112
-4.913072	-3.864148	20.701664	169	166	170
-9.601421	-3.663500	22.830868	141	138	146
15.035898	-1.176265	43.020451	56	50	57
-0.084388	-2.507264	16.173134	216	214	215
-5.739974	1.512293	22.516010	166	159	157
-7.366624	-2.658607	18.318474	8	9	12
-2.539280	-4.441006	31.788038	216	217	222
-7.442677	1.339061	18.478933	52	47	49
-6.733808	1.164141	27.040405	9	7	8
-3.746750	0.356754	16.038486	74	72	73
14.096204	-2.071850	35.537899	75	69	74
-9.393351	1.202177	22.957005	11	10	5
5.993680	-2.750977	20.904066	28	31	40
