4.782545	-3.708951	17.723160	118	119	122
-21.947203	11.396174	46.332611	44	40	37
6.821133	-2.717464	16.242790	63	63	75
-3.591675	-1.668620	18.509113	121	118	122
6.382577	-3.827193	16.574642	181	174	173
6.557268	-3.972393	17.083706	150	145	146
3.170003	-4.999169	16.905233	45	45	68
-3.400909	-4.362566	18.661594	178	174	179
7.202368	-2.772376	17.096287	41	41	53
8.394337	-4.489644	14.812892	217	190	103
7.551663	0.167764	17.335863	166	164	172
5.877158	-2.815579	16.786674	170	170	182
4.497096	-3.083145	17.301338	190	177	185
3.879494	-4.923113	17.266392	27	26	37
6.328553	-3.041033	16.708025	179	179	190
4.294138	-4.880500	17.234861	161	157	169
8.364030	-4.418332	15.687103	26	21	25
7.000577	1.190029	17.732670	130	123	126
3.811440	-4.855649	17.277903	44	40	51
4.706564	-3.152375	17.291483	29	26	30
5.922061	-2.933986	17.234259	62	62	74
4.294386	-2.872197	17.404566	68	59	63
8.706773	-4.340012	15.473784	146	134	146
6.242394	-2.776566	16.754639	193	191	203
8.375734	-4.463900	16.001839	15	7	14
8.520184	-4.421116	15.965708	124	122	128
4.646805	-3.318897	17.762774	23	25	32
4.669794	-3.291661	17.283920	172	175	179
4.702647	0.929692	18.573341	33	28	30
5.251662	0.900508	19.514021	106	101	103
6.300421	-2.825341	17.210510	65	65	77
4.939422	-3.562918	18.136976	36	40	42
6.731447	-2.585114	15.970532	71	71	83
5.813743	-2.715616	16.802891	52	54	65
4.760559	0.509243	18.042233	140	138	139
4.830893	0.441460	18.617058	169	167	168
5.056775	-3.567580	17.329571	187	188	191
4.352101	-3.351995	16.085150	181	178	182
4.355673	-3.641260	17.354483	47	44	52
7.791247	0.097620	17.315414	22	20	27
7.618056	0.097472	17.324600	10	10	20
4.095276	0.019801	19.105751	36	31	30
7.402880	0.039659	16.685707	11	11	19
4.929494	-0.374800	17.732141	11	8	20
8.326336	-3.615147	16.293583	163	155	157
3.734654	-0.645178	18.106422	30	29	29
4.240772	-4.196202	17.311832	78	73	78
3.620644	-0.680924	18.089703	132	129	133
-3.716339	-1.510064	18.995987	68	65	71
-2.383439	-1.520378	18.502186	42	39	45
-3.287088	-2.095044	18.923567	84	85	89
3.997248	-4.128795	17.328762	52	48	50
6.167038	-1.492288	17.730587	43	43	49
-2.939555	-2.040136	18.486044	65	64	69
-3.260136	-1.780771	18.180813	195	192	198
6.745848	-1.524275	17.860344	23	21	27
6.632770	-1.508432	17.357687	153	154	157
7.246505	-1.520084	16.247208	27	18	18
7.271785	-1.440788	16.373150	174	164	164
7.488610	-1.536775	16.333609	11	6	8
6.554837	-1.560867	17.046986	42	42	49
-2.360610	-1.758448	18.628866	90	87	93
6.664278	0.901019	17.702188	150	148	153
4.802711	-3.948934	17.302338	186	179	182
5.869046	-1.321289	17.033880	157	155	159
7.714463	-1.493676	16.834997	165	158	157
3.296243	-5.068453	16.881985	47	52	89
-3.314581	-2.610493	18.898489	178	175	179
-3.358579	-2.415174	17.895422	181	178	182
5.826619	-1.439735	17.389059	41	39	46
5.069231	0.404163	18.653107	19	18	23
5.792528	-1.369474	17.394434	150	146	149
7.003496	1.261294	18.183897	104	97	96
6.992054	-2.770912	16.383699	201	201	211
4.611978	-3.067829	17.114508	23	17	22
4.581778	-3.178472	17.676083	179	168	176
6.402767	-3.086510	16.968691	176	176	187
3.220264	-5.097613	17.127277	40	41	69
-3.283383	-2.076220	18.804565	167	166	169
-3.031312	-2.094023	18.941196	47	48	53
-2.890505	-1.907782	18.915960	177	174	180
4.444523	-3.192528	17.113132	29	32	39
6.218271	-3.123740	16.549246	26	29	40
3.600225	-0.586680	17.595108	41	40	38
4.793568	-3.348075	17.656370	172	175	179
3.512401	-0.671600	17.584507	129	127	133
-3.573958	-1.669245	18.409437	196	193	197
3.785389	0.026864	18.036222	52	47	45
4.947486	-3.521516	17.172628	194	195	198
3.245556	-5.012152	16.664803	33	40	89
3.761873	-4.803705	17.117392	93	87	96
8.501770	-4.562287	16.229120	84	76	82
8.463601	-3.680155	16.547644	74	68	71
6.687729	-1.506896	17.761219	23	21	28
5.849498	-2.893418	17.056442	62	62	74
7.498162	0.082507	17.089666	48	51	60
7.091144	-2.748263	16.925308	47	47	59
6.923084	1.200626	17.799145	139	132	136
5.906231	-2.770775	17.089298	90	90	102
7.578527	0.040989	17.081079	18	19	28
6.459432	1.136152	16.580833	135	128	131
6.597439	-1.498503	17.262308	153	154	157
-3.345227	-1.828805	18.632936	208	203	209
-2.380825	-1.477296	18.250418	45	42	48
3.938106	-4.103788	17.164270	76	71	73
4.368277	-2.921460	17.692240	68	59	63
4.941660	-3.601785	18.232332	69	75	78
6.335070	-2.845110	17.012945	195	191	203
7.418974	0.165701	17.101702	162	160	168
4.172349	-4.837301	17.082527	65	62	76
3.776112	-4.649528	16.671577	101	98	109
4.662572	0.486169	17.955271	139	137	138
6.606292	-1.584302	17.197847	33	33	39
8.932554	-4.465199	15.886957	163	157	170
6.124927	-1.511106	17.597563	25	25	33
6.343549	-3.826210	16.503994	177	170	169
5.790900	-1.307112	16.813009	112	111	116
8.810951	-4.627891	16.499033	89	85	90
7.916520	-4.207629	14.983089	108	102	107
4.684574	0.945791	18.604580	91	86	88
4.090132	-2.620655	15.732638	95	86	92
7.502816	-1.482260	16.892498	172	162	163
4.613166	-3.605996	17.180052	78	76	79
5.914161	-1.378976	17.796156	151	147	150
9.167104	-1.358254	16.255245	150	145	142
4.720071	0.417582	17.549824	19	18	23
6.406980	-2.987464	16.574623	70	72	81
6.484323	-2.604015	15.468208	174	173	184
7.602475	-1.603919	17.057178	28	18	21
7.564634	-1.542485	16.503967	23	18	17
6.869226	0.910677	18.277523	79	78	83
8.749376	-4.526070	15.591591	81	66	63
4.724328	-3.172385	17.555744	15	12	18
7.003008	1.219690	18.078913	132	125	128
-2.545193	-1.487879	18.591913	29	26	32
6.968282	-2.719753	16.723360	34	34	46
-3.066196	-2.122142	19.056381	75	76	81
4.315422	-2.917234	17.575743	115	109	111
6.211444	-2.831115	16.805754	166	164	174
-3.329870	-1.803415	18.299019	207	204	210
-2.967852	-1.972971	19.514103	177	174	180
4.468558	-3.121895	17.565304	206	193	201
-2.405456	-1.724654	18.781923	80	77	83
5.006753	-3.470316	18.243097	172	175	179
4.568780	-3.325394	17.550604	61	62	69
5.124554	-3.472915	17.508526	50	51	55
-2.447198	-1.550192	18.674452	61	58	64
4.859348	-3.483131	16.983591	189	190	193
7.757831	0.039384	17.508129	67	70	79
4.825119	-3.976777	17.331638	186	179	182
3.948872	0.020336	18.841013	47	43	37
8.088729	-3.521552	15.846045	136	126	128
5.714863	-2.725226	16.310255	165	165	177
6.455231	-2.682377	16.798132	35	39	50
3.557724	-0.546267	17.464827	18	18	15
3.790722	-0.750415	18.859709	90	88	94
4.714233	0.506126	18.137791	128	126	127
6.390916	-3.872314	16.619137	177	170	169
6.974902	-2.644724	16.197914	197	197	209
6.311399	-1.416924	16.958429	23	21	28
6.146763	-1.538516	17.655287	38	38	46
4.237102	-4.940552	17.436605	64	60	72
6.460498	-1.367329	16.957205	159	157	155
6.326006	1.238244	16.205591	51	44	42
7.059069	1.378623	18.088621	33	27	22
3.997119	-4.242137	17.516340	119	113	116
-3.548428	-1.658319	18.266714	196	193	197
7.051353	-2.860358	16.685549	174	173	184
6.089573	-3.057903	17.473656	175	172	183
3.822416	-4.678990	16.824265	101	98	109
6.502442	-1.563628	16.933954	33	33	39
6.291929	-1.407846	18.192839	139	137	140
4.982630	0.813504	18.706268	130	127	128
4.793969	0.942315	18.959963	91	86	88
6.783793	0.902040	18.057217	126	123	129
5.565012	-2.595938	16.082026	47	47	59
8.141752	-4.332951	15.585888	36	28	34
6.828950	0.779013	18.369747	32	31	39
4.891429	-3.837417	18.208973	47	46	49
7.694309	-1.528924	17.335152	172	162	163
4.566333	0.709937	18.048836	54	49	51
7.624424	1.233912	18.963329	38	31	34
5.134772	-4.124942	18.928478	73	71	72
7.693076	0.026934	17.304630	18	19	28
-3.613541	-1.542547	18.557680	94	91	97
-2.473804	-1.751701	19.292770	83	80	86
-3.412570	-1.905256	18.892389	207	204	210
-2.794530	-1.861467	18.288521	199	196	202
7.955027	-3.457618	15.564313	170	157	158
-2.623009	-1.442420	14.486150	84	85	89
6.804723	-2.715145	16.485697	44	44	56
4.294106	-2.881921	17.439289	68	59	63
5.625939	-3.117928	17.368958	65	58	70
4.415405	-3.125708	17.428568	186	173	181
5.013817	-3.604925	17.365654	180	181	184
4.778730	-3.306395	17.405983	175	179	182
4.219230	-4.335425	17.361206	56	50	55
4.535686	-3.307551	17.415619	34	37	44
6.743234	1.122601	17.396832	144	136	142
6.899247	0.911377	18.318291	102	100	105
6.619031	1.305032	17.396790	42	35	33
4.986148	0.793731	18.774498	119	117	118
7.174049	1.363681	18.364658	83	76	74
5.215333	-4.314447	18.483206	187	180	183
6.479829	1.254324	16.550442	51	44	42
4.180754	-3.205664	16.789660	106	103	111
6.962217	-2.823994	16.443878	166	165	173
6.012510	-1.578237	18.142374	32	32	40
-0.357509	-1.944601	19.184271	217	214	218
6.098210	-1.544002	17.510752	26	26	34
5.538919	-2.774970	16.061081	146	142	153
5.992277	-2.873789	17.366890	161	161	173
7.078372	-2.708496	16.444832	197	197	209
3.519123	-0.549308	17.316437	18	18	15
3.885790	0.018990	18.543470	47	43	39
3.673692	-3.898061	16.057066	19	18	21
4.659754	-3.125396	17.422924	35	29	35
4.562099	0.898774	18.036968	43	38	39
6.180695	-3.012041	16.526497	135	135	147
6.565705	-4.032535	17.092857	150	145	145
7.643616	0.269888	17.334352	95	89	96
4.608841	-3.735298	18.235962	196	192	201
4.734917	0.517390	18.192759	154	152	153
6.550806	-2.327863	17.389418	47	50	61
7.075332	-2.811358	17.073467	36	36	48
-2.412554	-1.661901	18.636795	83	80	86
-3.568027	-1.956436	19.505312	207	204	210
-2.788305	-1.883956	18.541006	209	206	212
-3.679703	-1.602004	19.223566	73	70	76
4.305520	-2.840386	17.278378	56	46	50
4.809749	-3.272975	17.244535	176	177	180
4.766949	-3.482301	18.253218	90	89	97
5.013911	-3.770782	17.187220	59	55	64
5.369874	-3.627225	18.199041	50	51	55
4.947764	-3.558104	17.212934	194	195	198
4.025497	0.006372	19.125181	47	43	39
4.943135	0.975241	19.248871	33	28	30
6.429044	-3.317332	17.082636	31	34	45
6.928511	1.152630	17.876179	144	136	142
4.377179	-3.500189	16.500484	76	74	75
6.058760	-2.933499	16.251196	176	176	187
-5.605510	-1.698646	19.407705	200	204	208
7.186229	1.403811	18.285982	41	35	30
6.028778	-2.973654	17.183550	64	61	72
7.039520	-2.847573	16.542259	166	165	173
6.443311	-1.465242	17.335888	24	22	29
6.779253	-3.400269	19.663832	180	180	192
6.034501	-2.831545	17.201437	146	145	157
6.807677	1.324252	17.923346	42	35	35
7.322960	0.079166	16.494249	11	11	19
-0.349803	-1.877675	18.451138	189	186	190
6.323615	-3.804624	16.290703	183	177	169
-16.306023	4.868027	33.355602	186	129	139
6.601135	0.899702	17.137089	145	145	145
4.406468	-3.751587	17.522991	113	110	116
6.071715	-1.597373	18.327454	32	32	40
4.717476	0.551798	18.019714	111	109	110
4.794024	0.703215	18.024170	112	110	111
5.530813	-3.051640	17.218899	42	35	47
3.643756	-0.558609	17.897034	15	15	12
8.071505	0.327236	18.168509	24	17	27
7.917601	0.250591	18.168407	157	151	158
6.482642	-2.255969	17.235891	16	19	26
-3.391005	-2.177988	20.593685	22	26	30
4.172376	0.692325	19.281456	45	48	67
4.402988	-3.278667	17.070341	91	92	100
4.747050	-3.191612	17.062164	163	163	166
6.264284	-3.086745	16.945238	175	174	184
4.602396	-3.255016	18.277954	201	188	194
7.252488	-1.752458	19.353491	26	25	33
-5.444824	-1.654063	18.824787	194	196	201
7.168221	-2.897975	16.842535	187	187	198
6.932271	-2.821329	16.894899	49	49	61
4.232073	-2.762466	17.089321	37	30	33
-0.435895	-1.901802	18.656700	213	210	214
-20.713564	5.758889	49.246418	119	116	118
-2.721703	-1.773981	17.608612	199	196	202
7.111917	0.097016	16.134306	6	9	17
4.742025	-3.532664	17.039087	199	200	203
4.590283	-3.891408	18.221653	103	99	108
6.610780	0.760873	18.129883	25	25	33
4.270623	0.886796	19.287825	39	44	69
7.089267	1.404881	18.183275	33	27	22
4.580467	0.889261	19.353647	159	155	147
-3.203889	-1.741544	17.341026	204	201	207
4.579514	-2.677396	17.092123	135	138	149
6.297702	-1.552136	17.723026	28	28	36
6.989300	1.036897	18.158356	136	131	134
5.346775	-3.016589	17.042093	38	31	43
4.655163	-3.214455	16.841946	120	122	124
-3.362119	-1.408242	17.312567	83	80	86
-2.500562	-1.573891	17.887671	72	69	75
-0.506326	-1.722178	17.284140	214	212	213
-2.714792	-1.788449	17.883078	210	207	213
-3.010903	-1.768635	17.718201	29	30	35
-2.729542	-2.017560	17.988920	202	199	203
4.335970	-2.828657	17.505421	54	50	52
4.924162	-2.852849	18.305435	125	128	136
-10.559717	3.853267	37.463882	21	20	25
6.217180	-1.280511	16.924383	166	160	161
6.521832	0.748664	18.018970	25	24	32
4.483648	0.847854	17.789614	43	38	39
6.804213	-2.404788	18.257219	24	27	35
6.594533	0.967960	17.150024	134	133	133
6.751484	-2.783992	16.695681	40	40	52
4.583322	-3.291548	18.275444	181	170	175
4.660815	-1.582729	16.891373	66	60	64
4.635043	0.766894	16.848948	50	40	43
6.122188	-1.215219	16.657663	168	161	160
6.214536	-2.173528	16.565825	17	20	29
-2.530654	-1.608813	18.221310	72	69	75
-3.033331	-1.853963	18.075556	22	26	30
-0.485698	-1.766467	17.305351	213	210	214
-3.246054	-1.563191	17.796339	75	69	76
4.264217	-1.510572	16.159792	96	91	93
4.337111	-1.457844	15.686417	44	41	47
-5.307454	-1.641995	18.578304	203	204	209
5.375089	-2.567271	18.323408	42	45	54
3.944724	0.365286	15.188964	112	111	117
3.174615	0.584776	19.539305	21	21	21
4.091446	0.675690	15.004541	42	31	28
5.071189	0.582361	13.279064	94	94	102
