-5.054851	5.312071	31.185331	47	31	27
-7.413255	-0.344212	34.966846	26	24	22
-5.317245	4.516816	28.909292	139	130	136
-7.571227	5.422215	28.066181	133	126	125
23.256573	-11.362350	47.200066	66	54	70
-3.565977	-2.204785	25.632145	241	246	248
-7.097550	0.086020	14.275084	182	171	156
-2.736631	0.039742	4.793602	155	154	143
-6.230225	5.848890	29.560373	156	156	156
-20.577227	-5.213139	35.714951	137	129	119
-9.116173	-1.880561	22.592377	221	218	205
-7.928540	0.263757	24.036934	142	140	141
-16.380760	-8.119414	29.140646	139	139	148
-6.883945	0.360566	13.903511	157	147	125
-8.174718	0.219114	15.365288	145	146	132
-0.000655	1.548828	37.670616	169	167	175
-3.207240	1.207560	38.210625	156	155	160
-0.249811	3.789492	30.642941	57	39	48
-17.268524	-8.792281	30.831070	56	53	65
-13.330876	-2.855548	32.888741	219	215	200
-3.355774	3.679811	27.784235	14	7	12
-8.774713	6.236019	33.249664	22	16	14
-6.148441	5.773472	33.425438	119	106	114
-4.908097	4.944602	27.899038	44	22	25
-1.672117	7.151350	34.065701	142	125	133
-2.641413	3.121077	29.978912	172	147	146
2.896714	-10.928542	40.627495	220	216	230
-3.997629	-1.347845	33.703136	137	140	147
-5.955288	-0.048197	26.217253	28	18	19
-5.871461	-1.842468	29.888947	20	16	27
-4.076636	4.603887	26.266973	176	136	127
-2.986191	4.150715	33.893085	181	175	173
-3.975867	-1.149028	32.924526	156	156	166
1.355850	1.671120	34.923004	44	40	46
-5.757717	5.511200	34.768490	133	125	131
-2.627542	2.534899	31.313189	179	169	168
-8.851402	-0.180581	41.273586	158	148	152
-5.288791	-1.517506	31.151463	33	27	34
-1.194335	4.682216	32.477509	47	33	33
-5.144576	-0.104153	23.988920	132	125	128
-3.537696	-1.294106	28.815073	1	14	25
-4.083875	-1.140647	32.711361	159	167	176
-4.305665	4.352383	30.039675	171	162	162
23.347843	-11.074534	47.190681	199	183	198
-3.966227	-2.190963	34.620346	148	152	156
-4.356560	0.074914	8.127173	146	145	136
-5.215240	5.537032	29.376064	46	31	27
-1.982598	6.879381	33.406063	41	40	44
-0.068573	4.923250	34.673561	57	44	52
-5.711143	0.543999	23.181395	180	169	166
-10.229720	0.797532	28.084299	215	186	149
2.387365	-9.349875	33.333893	211	208	227
-2.855529	0.859339	32.422161	34	38	40
-5.010786	6.838516	33.566467	176	135	127
2.503903	-9.965892	35.577755	181	177	192
-3.856997	5.442052	44.375374	115	110	107
-6.481508	-0.029634	11.436011	142	137	129
-5.969742	-0.115627	27.837038	158	148	152
-5.415771	0.064614	9.745781	144	145	137
-3.433641	1.278635	40.695042	155	156	159
-7.582171	0.369395	15.261601	189	179	155
-0.108590	1.322493	32.693958	164	162	170
-4.127770	-2.516803	29.334257	222	227	229
-8.492990	-1.762945	21.053213	221	218	205
-18.095869	-3.165406	33.048168	180	166	154
-0.374561	4.557815	35.338390	79	76	82
-3.470711	3.778699	28.646536	11	3	9
-2.911146	7.837351	35.747215	20	8	12
-5.417411	4.586848	29.276173	121	113	119
-4.974912	5.153143	30.547579	49	38	38
-6.402170	6.014280	35.047745	118	106	114
-6.868515	6.500632	32.774040	156	156	156
-6.286083	-0.076711	11.089480	145	139	132
-1.264228	4.338214	33.600765	55	36	43
-1.949860	7.042112	35.497227	70	57	61
-8.639470	6.294927	24.755180	119	115	107
-4.216617	-1.603915	34.823959	17	42	53
-7.090431	0.239766	21.495941	142	140	141
-7.746678	5.534429	28.578577	152	145	143
-4.698257	6.329129	31.249763	186	150	138
-5.675139	0.124673	11.312491	78	63	43
-5.087663	4.821079	30.314978	159	147	154
-10.877942	0.304538	20.381943	118	119	107
-4.633513	-1.295025	33.509041	96	162	172
-15.051329	-2.983948	27.413645	164	153	145
-0.112971	5.117677	35.671951	28	17	24
-6.273364	6.313450	35.299686	26	9	11
-4.813652	5.447974	30.967525	186	162	152
21.155876	-10.357759	42.956005	42	31	48
-5.255826	-1.540747	43.508324	138	153	160
24.671831	-7.941434	47.735256	148	135	155
-5.892884	0.083891	17.998844	14	14	14
-5.129544	-1.652720	26.016684	21	18	29
-6.230348	0.604329	25.286842	188	178	178
-8.926704	0.684816	24.509855	179	158	136
-1.815352	6.245466	30.426826	26	25	28
-5.955626	-0.286796	28.089615	42	40	38
-5.053266	-2.054828	25.929651	89	157	153
-4.592329	4.627715	32.043724	137	132	133
-8.410287	-0.025342	37.251816	59	49	50
-5.296650	5.627505	29.817698	62	46	41
1.346266	1.662149	35.023907	83	79	88
2.702364	-10.136203	37.768589	220	216	230
-8.442126	0.302646	25.439493	188	183	182
-1.914582	0.046534	3.366018	69	62	42
-0.263807	3.934565	31.389071	40	27	35
-13.216207	0.657448	26.610338	189	179	155
-7.094199	6.787851	34.122379	156	156	156
-3.442016	0.053189	6.028306	170	169	158
-4.881258	0.053512	8.783417	167	168	159
-16.773705	-2.893994	30.561926	180	166	154
-1.183633	4.552623	32.039574	31	14	17
-4.631097	-2.823917	33.041332	155	161	164
-4.309246	-1.192382	30.714233	87	171	182
-5.707319	0.154620	10.664246	153	155	140
-5.356601	4.579628	29.054077	121	113	119
-5.076444	4.715695	29.927500	84	75	81
-5.571928	-1.873694	28.376446	18	24	32
-5.050305	-2.779024	34.075230	166	165	168
-5.591376	5.821278	34.652000	92	80	80
-8.427547	-1.771338	20.863558	214	211	199
-5.565893	-0.087120	25.658266	162	152	156
-7.237915	-0.014023	32.059490	33	23	24
-3.259014	8.802739	40.010281	29	10	13
-4.280400	0.158294	12.976058	5	3	1
-8.092964	5.733891	29.663000	159	151	150
-0.192273	5.635056	39.232220	35	27	33
-11.190418	0.841205	30.926945	179	158	136
-3.353435	3.582723	27.377680	15	7	13
-4.763058	5.383850	30.775330	141	109	102
-0.092427	1.126985	27.766245	169	167	175
-6.656563	6.124701	36.082329	66	59	66
-4.706508	6.241798	31.041639	179	153	137
-5.240200	5.228395	29.385038	56	39	42
-7.404683	0.485417	14.653638	65	54	31
22.259005	-10.994449	45.167850	72	60	76
-5.540240	-0.318931	26.254953	67	67	64
-6.470744	-1.810925	38.124157	98	85	95
-3.101656	4.349937	35.556591	145	142	139
-4.833119	2.748377	32.380974	63	58	57
-6.044248	0.549828	24.295364	193	184	184
-1.855115	0.143273	33.778484	68	68	76
-5.948176	-0.007125	24.141937	68	61	61
-2.894195	7.583425	35.170631	29	18	23
-1.813447	5.980780	29.753633	61	57	58
-5.587216	-0.132559	25.758574	152	145	148
-8.388447	8.060719	40.736675	58	56	59
-8.201524	5.762016	29.938921	155	147	145
-6.698050	-3.799950	45.876141	166	165	168
-4.702150	5.445021	30.671894	178	148	137
-5.316649	5.100262	28.713827	24	12	15
-7.990551	0.060299	15.876800	146	138	126
-14.995428	0.517308	45.433048	101	96	94
-5.603976	-1.899450	28.632839	18	24	32
-4.863400	5.065276	30.312897	34	24	24
-5.852906	5.251579	31.696129	115	104	113
-5.092560	4.663384	29.761896	84	75	81
-5.351393	4.527214	28.884050	121	113	119
-13.233125	-2.322424	24.133059	195	181	167
-3.918880	0.128270	11.810113	7	7	4
-5.081376	-1.304495	29.744370	23	15	23
-0.271003	4.778179	32.931492	35	27	33
-5.974734	-1.705709	41.895542	94	163	170
-1.144515	4.327821	31.302097	25	8	14
-3.951330	-1.176275	31.624056	138	153	160
-1.250639	4.092360	31.164751	71	52	58
-12.403929	0.528557	24.931990	186	177	147
-4.073031	4.306733	33.484573	14	6	12
-0.275546	4.117044	33.149040	62	47	55
-7.505895	-1.892365	21.583502	89	91	88
-3.115015	4.386905	36.114304	145	142	139
-8.078965	-0.048777	32.949230	71	64	64
-5.685690	0.004417	24.986319	28	18	19
-5.725198	-2.350153	29.257177	90	164	160
-15.047977	1.075679	41.993305	126	112	101
-8.031164	0.498967	15.855145	95	83	57
-5.067699	-0.325374	24.007748	97	95	93
1.358388	1.556772	34.470642	64	61	67
-6.477826	-4.028159	46.625702	109	113	117
-2.858592	6.563293	31.757801	99	71	73
-1.753154	6.217165	31.079304	29	12	18
-6.996192	6.822485	34.190327	168	164	163
-4.454967	3.942080	24.207422	134	123	132
-1.035923	3.473452	26.181175	31	14	20
-0.198292	4.742646	37.396671	62	47	55
-5.007885	5.335749	41.717213	17	6	13
-2.771866	3.967044	32.240707	155	153	149
-11.705307	0.870241	32.727631	213	195	180
-10.517816	0.490382	21.127672	187	178	155
-5.859335	0.052304	11.577218	146	138	126
-3.841637	-2.208848	26.412743	208	212	216
-4.113736	-1.000739	24.060217	29	28	33
-4.301351	5.667669	28.106277	188	159	147
-5.711087	7.456779	38.213696	176	156	139
-4.337743	5.019541	28.252666	176	136	127
-6.566940	6.387308	35.780994	26	16	22
-9.526651	0.201089	42.934692	13	5	11
-4.117447	4.223573	25.295963	34	24	24
-4.655349	4.392597	27.281618	143	130	138
-0.613389	3.627995	27.268852	160	166	169
-9.865892	1.032492	39.891479	195	189	187
-5.276156	0.334017	10.413357	39	29	9
-6.206490	-0.106519	28.515839	153	146	146
-2.985929	4.289973	31.630056	64	30	39
0.117239	1.707829	39.721733	166	162	171
-4.367637	2.377926	29.156149	26	21	20
13.547063	-5.305249	35.938625	21	5	6
-14.269421	-6.794104	33.583458	107	110	115
-6.026510	-1.422072	16.832911	137	135	133
-5.225672	6.038621	33.742577	188	162	151
-9.258909	8.967431	49.821712	12	11	15
-4.685691	0.208356	9.348968	189	179	155
-5.936888	-2.300172	28.883133	71	167	174
-10.077752	0.097829	19.912619	188	177	165
-10.495713	0.665784	29.698990	197	188	187
-8.946783	0.935136	35.562012	198	193	192
-4.592997	-2.704907	31.772394	86	87	92
-5.572998	-1.842027	28.513653	24	25	35
-5.804872	5.276000	32.171791	134	123	132
-8.561932	0.229767	38.735321	13	8	10
-8.585152	-0.166712	39.756485	126	116	117
-0.229573	4.815546	32.645847	23	17	22
-3.375052	4.974898	40.328339	179	177	173
-0.337793	5.981041	46.737511	110	104	111
-1.164054	4.255420	30.921516	39	21	25
-0.712927	4.221140	31.848858	149	150	153
0.104536	1.518760	35.374653	166	162	171
-5.460847	4.733849	34.102787	72	70	71
-7.429029	-1.557052	19.354244	11	11	8
-1.909276	0.323483	32.839039	78	82	86
-4.392261	-1.667459	30.366505	70	165	170
-4.543352	1.576122	25.949484	36	36	36
-5.164474	4.408895	35.649776	35	28	31
-7.232076	4.511844	25.163105	211	205	201
-13.008433	-2.786284	33.860966	13	15	17
-8.529229	0.171376	38.946430	13	7	12
-10.249645	0.678712	28.996502	211	202	199
-4.661256	-1.006851	26.461296	11	9	17
-4.121569	-1.424831	28.307070	68	169	174
-1.184024	3.911479	28.251062	75	56	60
-5.250567	-1.839403	27.019970	2	8	16
-1.092881	6.454994	48.288506	145	143	144
-4.360942	-2.595554	29.980780	86	87	92
-1.341365	-0.283720	32.037048	3	6	13
-6.751657	2.475307	38.318539	39	41	36
-16.740606	-4.751107	38.131004	99	99	90
-5.125784	5.031755	40.340385	42	34	40
-5.767795	4.913460	39.838482	31	25	30
-4.523587	3.934116	28.216509	92	90	91
14.205428	-5.391272	37.438198	34	22	22
-3.566082	-1.486365	29.424746	1	14	25
-2.104605	1.094887	29.048595	9	8	13
-21.882887	-7.855193	45.457851	45	47	52
8.724689	-2.882752	37.463394	57	45	53
-0.573939	0.298698	32.948116	31	137	145
-5.235854	-2.017276	24.704138	89	166	172
-20.876413	-5.935536	47.526382	90	89	82
-6.147101	-2.193540	31.594917	16	29	35
-5.300649	0.629752	20.728693	186	179	181
0.737847	0.694331	24.385660	50	48	46
-6.017311	-0.019299	16.456289	44	42	43
-3.375581	-0.745444	16.504892	61	55	60
-7.474116	2.838092	42.692852	40	41	44
-1.189972	-1.201164	33.317471	46	61	68
-3.733065	-1.946501	30.225092	19	46	58
-1.386450	-0.459770	32.190437	22	22	32
-0.459093	-0.000307	33.366409	1	113	121
-2.496316	-1.347093	31.340137	63	169	175
-1.465784	-2.216526	34.106987	77	161	170
0.279492	1.216884	33.790718	27	27	27
-2.125421	1.072099	29.364445	24	21	27
