18.004368	-4.933038	31.341724	38	36	49
6.353710	-4.263822	24.541327	22	21	45
12.625140	-7.656554	36.962948	115	112	127
12.884752	-8.216432	41.713211	16	12	27
16.361736	-2.272243	28.372568	113	109	120
16.351315	-2.398372	29.180876	21	18	28
15.733756	-6.810510	32.079948	170	163	174
7.914929	2.343772	18.588512	22	27	26
10.178752	0.285011	18.738705	24	22	34
15.656563	-6.959523	32.463306	19	14	18
14.821486	-6.240444	30.697756	12	7	23
11.949855	0.903036	22.066458	25	23	35
13.361395	-6.278568	28.415989	126	122	131
10.813532	-6.008710	27.104387	191	189	208
17.826237	-5.057286	30.920389	3	2	17
-10.312466	1.545245	45.005249	7	4	25
-10.358541	1.734164	45.192245	11	9	28
14.785733	-7.941011	33.491318	140	129	141
8.362070	-6.539827	37.446442	37	34	47
9.797093	1.514639	21.133305	47	48	62
7.943341	1.801008	21.101305	178	175	192
12.010835	-7.147160	29.077892	123	122	137
9.035826	1.778972	19.966276	44	40	53
10.467273	-7.210391	39.127289	160	153	170
0.383104	-0.279223	1.601233	159	147	161
10.720654	-7.196130	41.345886	136	134	156
8.201661	2.811849	18.198895	188	189	189
12.970958	-8.510753	28.322798	26	25	40
7.234998	2.449741	16.686737	168	166	163
8.318015	2.511860	18.399485	207	207	219
8.215182	1.991231	18.910389	41	39	49
14.182012	-7.913424	45.931942	31	27	40
7.914868	1.857242	21.254950	68	65	82
8.278757	2.425465	19.607370	68	73	77
10.302067	-7.684689	44.649845	182	179	194
7.987557	1.952069	21.335264	76	73	90
10.085080	-4.251449	20.881546	144	138	160
8.912107	1.824592	15.449516	90	66	11
19.918510	-5.831629	34.436325	77	76	93
-5.180545	-3.104812	29.168516	30	21	43
8.127661	2.997751	19.369146	42	50	34
12.997442	-6.767843	31.469835	200	199	216
12.405447	-7.679030	29.426331	147	145	153
11.222671	-5.062373	25.545687	25	29	39
11.323075	-4.756810	28.714474	174	174	183
16.620434	-3.097900	28.794550	118	114	123
10.361311	-7.552251	43.370647	42	42	54
7.702665	1.425125	20.680408	69	66	83
12.259909	0.353741	22.445486	74	72	83
-4.227934	-15.106436	49.143475	32	14	16
12.231155	-6.782327	30.640116	185	182	201
7.928993	1.787334	20.996902	175	172	189
8.181582	1.930442	22.005554	126	125	142
9.099108	-7.150198	40.942837	33	31	43
8.062605	2.090786	20.022186	189	181	194
13.233469	-5.956395	27.567678	41	36	33
8.615817	2.087835	19.831381	49	47	57
17.911880	-2.463843	31.089457	113	109	120
8.228852	2.818617	18.330477	177	179	180
-2.033742	-12.342483	40.857502	191	186	202
14.809479	-2.285051	26.639408	73	69	80
14.753330	-7.965835	33.479725	109	100	111
12.308908	-7.861403	39.890522	16	12	27
-7.107579	-4.676420	38.581707	194	187	199
8.425022	1.632804	18.667517	44	40	53
8.500954	2.502304	20.142324	180	186	189
-1.226067	-13.075567	48.834381	138	137	153
7.879438	2.372552	18.037291	203	205	207
-0.656642	-13.380571	47.197758	23	20	39
12.463499	0.950806	23.014984	123	120	133
12.851902	-8.899356	48.148590	128	121	139
8.113288	2.498654	17.974161	207	207	218
-0.466102	-8.732095	29.843132	162	159	174
-9.335325	1.486150	40.760227	26	24	46
9.730076	-6.649218	37.578766	135	133	155
9.242266	-7.029553	40.258873	183	181	195
9.969321	1.868162	20.139917	178	164	177
10.348160	1.598466	22.318945	82	81	96
9.397383	-7.991980	31.187147	156	160	180
15.437749	-7.244712	32.843361	157	153	162
9.433830	-6.880500	39.414688	42	42	54
10.732010	1.592940	20.211290	174	171	186
10.102118	-6.439893	36.925037	37	32	52
8.475724	3.131001	20.210474	100	114	88
11.614610	-6.940564	28.228020	102	101	116
11.825124	-6.831701	28.071194	187	185	205
16.716915	-7.018542	34.648041	25	20	36
15.558619	-2.792247	28.205164	127	123	132
-8.845227	-5.272684	49.916042	60	51	74
12.585640	-6.583401	30.773771	197	194	211
16.346972	-9.926948	47.810444	110	107	122
14.191947	-8.436460	33.703720	128	127	142
15.708316	-6.837240	32.081364	52	47	53
9.963485	1.751269	19.931221	126	86	111
-0.759899	-13.940679	47.583374	116	113	128
15.822495	-10.977909	48.274376	157	154	164
16.586063	-7.011231	34.502167	53	49	66
11.560642	-7.518258	34.303970	72	70	82
9.892080	-6.363425	36.227001	29	20	35
14.200583	-6.685853	30.417009	34	30	39
8.072514	-6.861703	37.399754	168	167	181
9.009871	1.747898	19.967415	120	116	130
12.208901	-6.793427	30.621889	141	139	159
8.120196	1.907353	21.942842	173	173	189
12.918526	-9.013813	49.028381	88	85	107
7.373422	1.759943	19.531693	46	43	60
-3.528093	-10.521185	37.872791	12	8	21
-9.747249	1.537400	42.489315	26	24	46
16.236261	-2.962810	29.612871	133	129	140
8.001128	2.724452	17.852108	179	180	183
6.236377	1.777334	14.788465	32	36	33
-8.658113	-5.043958	48.481491	48	39	63
8.500732	-6.695519	38.354134	54	52	64
8.279647	3.056557	19.727774	100	114	88
9.068037	3.099491	20.847246	119	117	115
10.420538	-8.082577	34.526878	178	181	193
8.987258	-6.462870	39.013138	34	32	45
11.242712	1.781339	24.183886	82	81	96
8.065960	2.504488	17.929337	210	210	220
13.585998	-7.090715	33.250355	198	195	212
12.182598	-6.628955	27.695692	145	133	145
8.692797	-6.583882	37.723713	188	185	200
8.500681	1.922414	19.534853	166	162	173
12.101475	-7.381009	35.601246	110	107	122
15.453668	-2.378985	27.805351	127	123	134
-8.827352	-5.284366	47.851322	133	127	137
17.237522	-9.916707	40.794655	82	81	99
15.766224	-5.408880	30.857927	38	37	55
13.429129	-7.636768	43.673927	33	28	43
8.884994	-6.480354	37.139885	42	42	54
10.990479	-8.755521	33.558578	161	157	176
14.780637	-2.294681	26.569176	45	41	52
7.104797	2.151910	15.888670	203	205	213
8.401673	2.397545	19.852600	189	189	197
7.595603	2.544790	17.501993	119	117	115
16.529150	-3.021874	30.139679	133	129	140
8.697308	3.164650	20.729660	119	146	100
8.487236	2.875440	18.912745	159	160	163
11.467779	-7.583702	41.886909	23	12	26
10.308264	-7.934627	44.900162	178	175	190
22.121193	-10.336180	47.133739	43	39	48
10.268775	-5.730971	25.777126	156	154	174
12.330845	-8.756589	37.656212	186	182	193
13.316887	-7.173635	29.999557	149	134	147
-7.475367	-5.574105	42.726135	51	44	55
7.914068	1.836196	21.410633	173	173	189
14.307954	-9.045120	46.735863	100	92	109
11.873568	-9.261646	39.213497	139	138	149
13.642886	-8.382534	40.368568	126	123	138
13.506207	-9.058578	43.604477	152	148	160
10.531713	1.644284	22.585005	58	61	74
-6.885253	-4.013678	38.513298	41	33	54
15.507659	-5.299631	30.376623	24	22	43
13.824292	-7.257384	33.837612	186	183	200
7.809184	2.359081	17.033627	69	69	79
13.123515	-8.476114	38.827370	72	70	82
14.461023	-2.769538	27.356209	86	84	94
7.288513	1.794477	19.215076	148	145	162
-9.988012	1.498584	43.196072	27	26	49
8.698906	-5.750398	31.812851	28	17	30
7.703164	-5.892233	33.323765	183	180	195
18.094717	-9.692515	40.400539	153	136	149
8.256957	3.002945	19.539448	38	46	30
7.959505	2.634277	17.718977	183	185	186
6.965509	2.326353	16.033003	204	202	201
8.253565	2.489313	18.780731	201	206	206
10.344879	2.704032	24.897369	162	151	165
7.854307	1.898530	18.408592	44	39	50
12.100924	-7.869572	35.789917	43	41	53
6.943615	1.977193	16.396639	63	66	73
11.850223	-8.769715	40.640057	30	40	58
13.024033	-6.839297	31.762794	188	186	203
8.480670	2.373811	21.506504	196	194	204
12.677085	-7.765933	37.497799	116	113	128
8.016080	2.434424	17.358120	72	73	78
11.089244	-8.483076	36.440434	183	185	195
12.470465	-8.262896	39.880138	180	176	187
7.776656	1.921998	20.274256	99	95	112
7.005150	1.684306	18.806023	76	73	90
13.452085	-6.285913	28.661943	157	153	162
13.286318	-9.205667	48.391193	38	22	35
10.354853	2.480735	27.769993	110	107	124
13.316951	-7.467213	38.433548	15	8	22
11.882334	-1.475662	24.819201	117	116	128
13.108491	-8.263036	42.502419	44	36	53
-7.655766	-5.400553	46.225185	170	164	169
12.234167	0.527025	23.012608	174	172	190
14.374646	-2.376701	31.537189	161	165	194
8.564429	3.109886	20.332272	63	85	49
15.349463	-9.700800	46.730129	150	146	158
-7.593232	-5.060845	41.203129	128	121	133
9.567645	3.243766	21.760162	191	189	188
8.888911	2.752848	19.257351	69	69	76
8.565453	2.702768	19.627468	164	169	166
-8.523941	-6.403840	48.569836	45	39	47
8.290616	2.773737	20.161322	174	209	160
10.447162	-5.480022	30.773666	68	61	73
7.433645	-5.874411	32.637001	190	189	204
8.291170	2.507241	19.678780	174	181	179
8.726083	3.486732	20.719557	161	149	151
11.259218	-4.911249	26.140759	53	56	71
11.575674	-4.807123	24.298847	30	28	39
15.193659	-7.088511	32.618412	148	145	160
10.425836	1.602479	22.345800	100	102	116
8.511017	2.358618	21.855938	180	180	196
-4.375626	2.663812	28.353550	40	69	69
10.798213	-5.154930	25.369434	156	154	171
8.158770	1.747632	21.219030	172	171	188
8.143722	2.012420	21.753510	138	135	152
-6.332882	3.786154	39.863102	48	68	71
8.380019	2.990443	19.853825	71	96	50
5.269580	-3.889554	20.967474	153	153	174
16.746557	-8.299492	46.408978	17	11	17
16.244156	-6.912337	37.417683	35	36	52
8.138795	2.431428	19.277403	174	181	179
7.166250	1.706596	19.161161	53	50	67
8.561609	1.761288	19.173496	153	147	159
10.462998	2.510704	24.562319	108	88	108
13.905184	-1.971704	31.120403	127	126	142
7.930814	2.319017	19.337540	214	207	215
7.508073	2.091288	19.450764	192	192	209
-7.574870	-5.979777	40.256832	136	127	138
13.629889	-2.275355	30.090425	162	166	195
-7.156368	-4.885159	39.221764	131	124	136
11.593736	1.810573	24.912081	132	131	146
16.684256	-6.628916	38.437077	133	137	163
-3.891979	-5.304035	35.533073	93	62	49
-5.434810	3.017315	34.069809	48	65	71
-8.828507	3.196115	36.506359	62	65	74
6.756122	1.463812	18.051699	149	146	163
-6.386296	0.907975	21.927546	62	65	74
7.083822	-2.200299	20.101124	90	86	103
-7.206981	-0.216152	27.320038	88	88	98
-7.369664	-2.277254	38.798286	21	13	23
-9.894191	-2.315565	45.144054	40	38	49
