5.639442	-1.481749	20.780262	137	138	141
0.483261	-1.019592	23.218130	193	201	208
1.532795	-1.043244	24.698711	190	200	208
0.969553	-0.984735	24.442780	162	167	175
0.725567	-0.930947	23.386520	186	194	199
3.355937	4.425014	20.262587	184	181	184
6.118116	-0.902436	19.662636	199	200	203
-4.426433	-4.719201	15.190679	34	37	27
-4.271669	-4.818661	15.521084	33	34	27
-3.981794	-4.748996	15.281379	49	49	48
1.331800	-0.842474	24.676514	0	13	20
6.277396	-0.551020	19.868631	184	186	186
6.263199	-0.546640	19.506918	141	143	143
6.353504	-0.286475	19.294491	61	63	60
6.954997	-0.223498	20.477491	192	194	194
-0.864353	-3.929477	18.862085	151	153	150
-0.013449	1.609519	20.704821	15	14	16
7.233273	-2.463588	20.478741	164	171	174
6.011028	-2.571477	21.335613	129	139	142
-0.794021	-2.468707	19.152012	167	176	176
10.910582	-3.086842	22.029041	23	28	34
-8.388712	2.138357	16.682684	140	138	139
-3.726641	-4.704255	16.207565	141	142	139
-4.638739	-4.446069	15.297616	163	162	155
-4.749835	-4.380107	15.062552	166	165	162
-6.812286	2.408506	17.888044	188	191	192
-8.702247	2.367954	17.076113	137	135	136
-6.661476	2.473872	17.622000	205	206	209
1.402399	-0.711904	22.936386	179	186	198
6.298555	-1.463153	20.793680	193	193	197
6.484818	-1.376782	20.341177	164	166	166
8.813637	-2.048041	22.549732	24	28	32
-3.773129	-1.109405	19.057665	146	149	156
4.969631	2.944049	20.391911	163	171	177
8.731888	-5.245282	23.093817	39	41	38
-4.673754	-4.453336	15.108616	40	33	28
0.902276	-3.479540	22.400591	173	176	196
-6.335458	2.342575	17.348291	155	157	155
9.119256	-4.765628	22.664356	33	38	34
5.983172	-4.815630	21.358015	37	46	47
0.163204	3.428858	20.017582	151	144	147
-9.051680	2.210012	16.715437	134	135	138
-3.319182	2.537883	18.963879	48	29	17
-6.600456	-3.284630	16.525343	146	150	152
0.005575	2.006543	26.069464	109	122	141
-2.777689	1.500533	19.953903	190	167	168
5.839063	-5.290155	20.742836	25	28	18
-0.344502	2.558511	20.168020	82	70	70
5.778527	-2.335289	20.079777	50	47	58
-0.222610	2.394882	20.165010	200	192	188
6.673074	-1.008653	20.400126	141	142	145
10.772992	-3.175211	22.025723	140	145	153
5.110534	-0.829984	19.716690	52	55	62
10.573490	-6.484081	22.706068	169	176	181
0.031133	3.441448	19.359758	178	170	172
0.733554	-3.574314	21.275919	21	25	35
8.323620	-2.040612	22.472837	49	55	55
-1.272422	-3.165045	19.851282	143	146	158
-0.553502	3.537689	19.791185	185	174	178
4.979369	3.042302	21.001139	138	148	154
10.666301	-6.037524	22.679806	72	76	78
4.122262	1.596564	20.153688	119	151	89
10.628859	-3.082926	22.006382	57	64	59
6.000325	-5.340280	20.520185	146	147	148
-0.365639	2.424257	20.228973	196	185	178
11.680279	-2.065078	20.747080	158	168	166
2.407847	0.329194	20.674685	118	121	127
-2.432091	-1.612264	19.908377	108	112	116
-7.264149	3.862152	18.028782	113	114	119
-6.439568	2.292416	17.592386	157	160	159
0.205026	3.558988	20.060608	30	23	21
4.966203	0.801068	20.185469	27	32	41
-5.709644	-3.149707	15.793620	145	152	157
-6.856267	-2.214630	17.432356	112	116	125
8.329842	-0.330677	21.884493	123	130	136
6.531129	3.587147	19.966713	103	101	102
6.156531	-2.831036	20.637478	123	132	134
-6.819499	-3.218317	16.019318	118	122	126
4.614058	1.660292	20.221146	58	73	64
7.265612	-2.299700	20.286810	63	69	67
2.629572	3.772711	20.098686	45	34	26
-0.139372	2.783863	20.305630	92	89	95
6.187394	3.658165	20.161800	166	164	160
-2.887308	1.550193	20.494736	200	179	177
5.838567	-2.495571	20.787235	129	139	142
3.214113	4.159190	20.235220	47	51	55
-6.600455	-3.284629	16.525339	146	150	152
-0.029298	1.605662	21.119129	34	38	51
7.168884	-2.452736	20.339865	144	151	154
-7.046824	3.790204	17.783031	139	140	145
8.896244	-3.054208	22.150208	52	56	57
-4.590296	-4.365728	14.796051	40	33	28
-1.285921	-3.247400	20.276581	145	149	162
3.370134	4.415192	20.273146	181	179	182
-0.816480	-2.450213	18.859148	158	167	169
9.179580	-4.779901	22.852537	74	79	75
6.210160	-0.540541	19.667776	184	186	186
-4.483840	-4.301013	14.792780	163	162	155
-7.092027	-2.307576	18.075430	128	132	140
5.629608	-4.561877	20.210886	37	46	47
3.701694	3.639033	19.616840	91	99	99
6.484448	3.793225	20.482491	34	34	31
-0.038982	1.925685	25.282789	107	121	142
6.096098	-0.921017	19.620062	177	178	181
0.023120	3.416257	19.351255	185	177	184
-0.581979	3.696681	20.662464	182	171	175
10.294982	-6.305023	22.121225	169	176	181
0.738684	-0.945666	23.576303	169	177	182
1.511497	-1.052221	25.158638	168	180	186
0.147025	3.209821	18.641516	59	54	53
5.714096	-2.262512	19.961779	31	28	40
1.167142	-0.977193	22.689314	157	169	175
0.446769	-0.996697	23.395397	142	150	157
6.313350	-0.540997	19.688728	174	176	176
5.212108	-0.837416	20.140467	12	15	22
11.002110	-6.228937	23.279255	69	73	75
6.489134	-1.394463	20.439791	159	161	161
6.615117	-1.017112	20.293108	131	132	135
6.525177	-0.302100	19.740072	48	50	47
5.934937	-5.258334	20.255556	152	153	156
11.105312	-3.152291	22.433884	36	41	48
-0.799969	-3.891463	20.876301	95	95	102
10.293261	-3.020386	21.417311	23	30	28
-0.359585	2.363873	19.700525	196	185	178
8.606936	-2.025247	22.088461	128	134	136
4.775722	0.742162	19.479548	34	39	45
5.208612	3.198082	21.779591	138	148	154
7.873765	-1.928376	21.475784	30	34	37
0.436635	-1.123881	22.248741	25	33	38
-0.353891	2.203563	18.214849	78	66	66
-6.581224	2.419884	17.394268	202	203	206
8.289622	-5.012633	22.020304	40	42	39
-8.483026	2.271016	16.592567	105	103	103
-3.746040	-1.129741	18.994535	103	106	113
10.935573	-3.205201	22.425844	80	86	86
-8.338070	2.143492	16.540300	172	170	171
-6.530624	2.413799	17.898985	168	170	167
-3.303817	2.524687	18.754770	49	30	18
7.834074	-0.277508	21.317038	121	125	127
6.681521	-0.206220	19.770893	179	181	178
6.223499	-1.504977	21.012377	104	108	114
1.305893	-0.689582	21.937298	141	152	163
-8.978974	2.192415	16.579115	134	135	138
2.402776	0.341349	20.925591	128	131	140
4.610662	1.670331	20.240219	114	125	123
-5.818290	-3.201842	16.077625	142	147	153
-2.472591	-1.054618	5.321267	127	133	136
6.464776	3.543070	19.845888	105	106	106
6.002573	-5.026587	20.309486	185	186	190
0.706048	-3.602872	21.240543	75	78	85
-6.577643	-3.109766	15.384657	88	94	96
8.108178	-0.329964	21.350727	123	130	136
-1.078573	-3.329108	20.085567	77	86	99
7.281120	-2.308133	20.371439	83	88	88
5.489801	-2.419400	20.843920	126	133	136
-8.306667	2.113714	16.421848	119	117	118
-6.521754	2.338295	17.742304	141	146	147
6.639951	-0.211427	19.668781	192	194	194
8.614169	-2.948538	21.604004	69	74	72
10.558032	-6.521919	22.790951	163	171	170
7.993167	-0.342647	21.657785	118	122	125
6.753583	-0.326951	20.579435	78	78	76
8.578979	-0.364742	22.672071	135	139	141
-0.843650	-2.540468	19.479498	158	164	167
3.972620	1.348547	19.419813	142	193	76
-3.443005	2.695645	19.712730	46	27	15
10.770317	-6.129513	22.807667	73	78	77
-6.359901	-2.109686	16.154379	124	128	137
3.246857	4.249930	19.573223	184	181	184
6.279687	-5.577409	21.479939	87	89	89
6.239580	-0.527442	19.768986	186	188	190
-0.385606	2.881581	20.150375	191	187	199
3.216369	4.174066	20.390593	77	81	85
5.005636	0.803416	20.331770	51	56	64
7.327515	-2.105019	21.362692	90	102	101
0.706563	-3.583901	21.250366	75	78	85
-0.183353	2.534017	20.641867	194	187	183
11.184515	-3.185919	22.653418	106	111	118
5.675175	-4.735770	20.722527	31	38	36
8.301825	-2.020183	22.673071	22	26	31
10.666454	-3.119586	21.894709	135	142	142
8.873438	-2.029067	22.767790	80	86	89
0.985544	-3.781772	24.478331	158	165	177
5.198174	-0.853514	20.197807	8	13	21
5.652883	-2.438951	20.166105	129	139	142
0.802600	-0.941608	23.842823	186	194	199
6.064205	-0.950598	19.510340	195	196	199
1.178517	-0.977386	22.694838	197	209	213
3.882172	3.767654	20.443392	109	114	115
-7.126079	2.639131	18.827093	200	201	203
8.036512	-4.864709	21.458302	35	37	37
6.674124	-1.045768	20.536634	121	122	125
7.660935	-2.423264	21.421339	133	134	137
-8.151736	2.180475	15.970520	137	135	136
6.030157	-2.377511	21.014904	43	41	50
6.771726	-2.477957	20.496433	55	101	98
4.708897	1.715925	20.701670	152	162	167
0.016026	3.430877	19.498964	181	174	185
6.078553	-1.454104	20.374250	174	178	182
5.434056	-1.384001	20.205835	94	95	98
4.920872	3.005774	20.536900	168	177	184
7.236337	-2.492246	20.615681	143	152	155
-0.903642	-4.039423	19.519142	94	96	95
8.677896	-4.527134	21.630756	33	38	34
-6.245233	-3.146266	15.629624	132	136	138
-6.482023	-3.051431	15.128983	130	135	138
-4.567849	1.712183	20.177479	12	8	2
6.530967	3.872552	20.650085	21	21	19
-6.215858	2.365131	18.445087	31	25	19
6.499848	3.596251	20.017443	99	100	101
11.647044	-6.635543	24.653170	123	128	127
6.741472	-0.198612	19.935654	179	181	178
3.086235	4.009441	18.787674	181	179	182
-6.639168	2.380702	18.056776	141	146	147
-6.697948	2.383145	17.666426	191	193	195
6.514631	-0.337756	19.890999	78	78	76
8.145428	-2.020127	22.248924	38	42	47
8.735973	-2.029733	22.350334	97	103	106
4.742685	2.902004	19.866415	168	177	184
6.102193	-2.655613	21.713047	58	69	71
8.230107	-0.382683	22.237230	116	120	123
6.285245	-0.545538	19.836859	184	186	186
3.963755	3.823336	20.809242	132	136	138
8.429074	-4.422574	21.009432	33	38	34
-0.848106	-2.563459	19.246794	161	167	171
3.249938	4.269748	20.685163	73	77	78
0.422120	-0.730601	21.037676	18	23	33
6.123764	-0.959608	19.777536	133	134	137
4.138034	1.424015	20.294867	141	191	78
1.435212	-1.016023	24.433706	168	180	186
0.822004	-1.005087	24.111824	63	71	76
6.731901	-1.101558	20.741716	124	125	128
8.107981	-4.898801	21.705570	35	37	37
-6.555415	-2.179833	16.689730	144	147	156
-5.368351	1.999464	23.897137	21	17	14
5.882699	-1.437573	19.684013	112	113	119
0.717471	-3.653629	21.224201	76	80	84
-0.925335	-4.045250	19.491758	82	84	84
5.643332	-4.618607	20.334238	24	30	32
-0.799209	-3.705991	19.868107	150	152	161
-0.411057	2.938076	20.541904	186	179	189
-6.629864	-3.096240	15.441973	129	136	136
-6.085186	-3.052603	15.194501	132	136	138
5.550633	-2.244645	19.516195	29	28	39
11.296864	-3.184147	22.740620	37	43	48
-3.350508	2.662659	19.246645	40	20	9
7.565645	-2.420402	20.843897	45	50	51
7.244627	-2.484409	20.770128	144	153	156
-0.049359	1.641760	21.615644	38	46	62
5.685582	-2.564922	21.585772	123	128	132
-1.100026	-2.781193	18.883865	54	54	62
7.636874	-2.165694	22.146164	90	102	101
6.306986	-0.309763	19.136974	48	50	47
6.483499	-0.148995	19.175903	198	202	204
5.942146	-0.947673	19.022573	186	187	190
4.860176	-1.231758	18.093500	189	190	195
8.593760	-1.923319	21.869392	19	22	29
9.412539	-4.799854	23.191486	27	32	31
4.170166	3.897468	21.207500	45	46	51
8.100327	-0.358158	21.763859	132	136	138
6.043210	-0.469438	19.075956	175	174	179
-6.804497	2.422614	17.922291	188	191	192
-0.841013	-2.554698	19.006723	161	167	171
8.651164	-5.146217	23.007486	35	37	37
0.900098	-1.016691	24.499367	73	79	82
4.274665	1.465597	20.946253	134	184	72
-6.082638	2.170010	16.474869	121	125	125
5.018483	-0.928286	19.749790	13	23	29
4.879313	3.016192	20.259163	180	188	195
8.800683	-3.035197	21.939657	52	56	57
7.995193	-2.553937	21.767494	41	45	47
-0.785898	-3.695780	19.888361	150	152	161
-5.567401	-2.797182	13.910533	147	153	154
-5.882224	2.559135	20.063179	2	2	2
8.483138	-2.056538	23.023317	40	45	47
10.029210	-2.873735	20.607748	149	155	158
3.155137	4.183100	20.139765	51	55	58
5.009011	0.793013	20.146891	27	32	41
-6.637580	-2.215891	16.951456	144	147	156
5.988308	-1.437887	19.928745	109	108	114
4.009011	3.427267	20.177805	53	53	61
1.469689	-1.037555	25.161713	158	170	174
-8.484256	2.268859	16.636353	131	129	130
6.961684	-2.459760	20.078516	80	89	91
5.354040	-1.615825	20.013947	16	18	21
6.342487	-0.985120	21.451387	5	13	15
-4.645048	1.643313	20.130865	4	7	0
-7.001283	-3.253415	16.328777	129	136	136
-3.210088	2.642057	18.740435	42	22	13
5.508703	-2.474966	21.086374	120	126	129
-1.063538	-2.819867	18.639318	60	63	70
2.288684	0.315411	20.543911	131	135	148
6.385955	3.405775	19.257708	15	14	12
-6.313941	-2.118891	16.049047	144	147	156
4.091455	3.865928	20.919281	44	49	52
3.227687	3.459369	19.393869	54	47	48
8.332630	-5.031415	22.561005	29	34	39
5.239208	-0.942056	20.717283	51	61	67
4.053187	3.473006	20.421926	53	53	61
3.222657	3.259151	19.370962	22	17	22
9.231546	-4.739557	22.787321	27	32	28
7.838933	-0.419104	21.210455	133	137	139
9.115790	-3.128993	22.760302	52	57	54
6.575233	-1.050158	20.980309	193	194	197
5.104560	-1.194032	18.946863	176	176	184
6.114967	-0.171283	18.320690	198	199	202
-1.082196	-2.773691	18.358442	62	63	71
8.256296	-2.652403	22.619686	40	45	47
8.296687	-1.925240	21.301428	16	20	25
7.714983	-1.915291	21.193527	22	26	31
0.851231	-0.961969	23.302633	172	177	183
4.792963	0.720745	19.429398	27	32	41
-5.092795	1.803604	22.045868	18	17	13
-3.381482	2.848387	19.875500	42	22	13
6.368488	-0.971542	21.591366	15	22	27
5.526191	-1.660664	20.665956	15	19	21
-7.288961	-3.356850	16.967209	128	136	136
4.637686	2.897997	19.548216	171	179	186
5.264550	-2.472527	20.490040	118	125	128
6.627322	-0.793729	20.415897	26	27	30
-3.315867	2.810542	19.399471	47	27	18
-5.349228	2.146135	17.978344	4	4	4
6.047794	2.390075	16.485884	24	22	18
-3.625571	2.658473	19.176043	169	155	141
5.631022	-2.595216	20.023365	105	113	117
6.860964	-2.396906	20.402620	140	153	164
8.094884	-1.804312	20.677702	19	22	28
2.216949	0.223046	21.270147	106	114	130
7.563895	-0.425944	20.583122	116	120	123
-0.966053	-2.792367	20.354351	179	177	188
6.351196	-1.160148	20.338217	198	197	200
-1.318153	-2.756168	20.073647	169	168	173
-4.818707	1.683281	20.394670	6	8	3
-5.662366	1.883204	17.605438	10	9	7
-7.071971	2.586708	18.726343	191	193	195
5.033454	-0.901865	20.025522	48	56	63
5.824069	-1.737865	21.825239	76	81	85
-5.466186	1.746069	17.006817	14	10	7
2.465520	0.153346	23.598829	94	102	111
6.527855	-0.717916	19.741125	30	34	36
7.921467	-1.741882	19.989233	13	19	22
-1.012576	-2.832469	20.286640	159	157	167
5.038375	0.564683	19.532265	44	50	53
11.426899	-0.032249	33.711319	185	182	189
-6.445321	-2.257241	16.522306	144	148	152
6.206635	-1.142820	19.649534	183	183	186
5.746412	-0.995695	19.548965	10	18	18
5.534261	-2.528994	19.349028	160	166	174
4.134123	1.450002	21.670826	117	168	64
4.825961	-0.984754	19.301388	64	74	80
7.611615	2.024710	19.881144	20	19	27
-4.700587	1.476121	20.139540	30	25	24
4.623248	1.560494	19.557981	100	131	72
